ply
format ascii 1.0
comment Created by Open3D
element vertex 1203
property double x
property double y
property double z
property uchar red
property uchar green
property uchar blue
end_header
0.0539822 -0.118709 -0.279075 159 154 163
0.0553564 -0.118272 -0.278511 157 152 161
0.0567218 -0.117834 -0.277943 164 156 161
0.0580784 -0.117396 -0.277373 157 147 152
0.0592826 -0.117419 -0.277802 142 139 148
0.060626 -0.116981 -0.277227 131 127 140
0.0618258 -0.117004 -0.277655 125 125 137
0.0630256 -0.117027 -0.278082 125 125 135
0.0643513 -0.116588 -0.277501 136 130 136
0.0656682 -0.116149 -0.276916 144 140 146
0.0669763 -0.115711 -0.276328 142 138 144
0.0682755 -0.115272 -0.275737 133 130 139
0.0695659 -0.114832 -0.275143 104 102 119
0.0707437 -0.114855 -0.275563 92 87 114
0.0719215 -0.114877 -0.275983 65 66 94
0.0730042 -0.115362 -0.277423 82 83 98
0.0741864 -0.115384 -0.277844 54 54 71
0.0753685 -0.115407 -0.278266 37 37 63
0.0765507 -0.115429 -0.278687 57 42 66
0.0777329 -0.115452 -0.279109 66 54 77
0.0789151 -0.115475 -0.27953 79 70 86
0.0800972 -0.115497 -0.279951 113 111 111
0.0812794 -0.11552 -0.280373 112 110 111
0.0824018 -0.116005 -0.281827 111 108 112
0.0835331 -0.11649 -0.283284 113 111 112
0.0847241 -0.116513 -0.283709 104 102 102
0.0858221 -0.117461 -0.286208 58 52 58
0.0869377 -0.11841 -0.288714 94 90 90
0.0881087 -0.118896 -0.290185 93 76 73
0.0893218 -0.118919 -0.290618 97 83 79
0.0905348 -0.118943 -0.29105 107 107 108
0.0917478 -0.118966 -0.291483 104 106 111
0.0929609 -0.118989 -0.291915 96 97 112
0.0941583 -0.119475 -0.293396 88 90 109
0.0953534 -0.120426 -0.29593 89 79 102
0.0965661 -0.121376 -0.29847 97 87 105
0.0977988 -0.121864 -0.299964 97 91 104
0.0990423 -0.122815 -0.302515 110 110 111
0.100297 -0.123303 -0.304016 76 76 86
0.10155 -0.123327 -0.304463 53 61 83
0.102803 -0.12335 -0.304909 55 65 80
0.104055 -0.123374 -0.305356 57 61 80
0.105308 -0.123398 -0.305802 53 58 74
0.106561 -0.123422 -0.306249 67 61 72
0.107814 -0.123446 -0.306696 61 52 53
0.109066 -0.12347 -0.307142 41 41 41
0.110319 -0.123494 -0.307589 40 40 40
0.111618 -0.123982 -0.309106 52 50 50
0.112825 -0.123542 -0.308482 54 50 50
0.114132 -0.12403 -0.310002 63 56 57
0.115389 -0.124054 -0.31045 64 56 61
0.116647 -0.124078 -0.310898 48 42 55
0.117836 -0.123637 -0.310268 43 36 45
-0.0162518 -0.121005 -0.259287 65 97 154
-0.0150123 -0.121028 -0.259729 56 81 158
-0.0133733 -0.120591 -0.259259 57 79 160
-0.0121382 -0.120615 -0.2597 54 75 159
-0.0105125 -0.120177 -0.259225 48 82 160
-0.00928181 -0.120201 -0.259664 57 90 163
-0.00766933 -0.119763 -0.259185 51 84 157
-0.00644305 -0.119786 -0.259622 54 87 160
-0.00521677 -0.11981 -0.260059 65 99 170
-0.00362192 -0.119372 -0.259574 54 88 159
-0.00240005 -0.119395 -0.260009 68 93 165
-0.00117818 -0.119418 -0.260445 59 86 158
-0.000311644 -0.119903 -0.261807 64 91 163
0.000914638 -0.119927 -0.262245 60 85 157
0.00214092 -0.11995 -0.262682 65 90 162
0.0033672 -0.119973 -0.263119 68 86 159
0.00493117 -0.119535 -0.262622 65 83 156
0.00648631 -0.119096 -0.262123 72 92 158
0.00803263 -0.118657 -0.26162 57 79 145
0.00924568 -0.11868 -0.262052 72 88 158
0.0104587 -0.118703 -0.262485 88 90 155
0.0116718 -0.118726 -0.262917 88 92 152
0.0125736 -0.119212 -0.264293 80 93 146
0.0137911 -0.119235 -0.264727 63 78 118
0.0147061 -0.119721 -0.266107 57 69 93
0.015928 -0.119745 -0.266542 63 71 91
0.0168563 -0.120231 -0.267927 56 68 83
0.0177934 -0.120717 -0.269315 61 74 87
0.0190241 -0.12074 -0.269754 61 74 87
0.0202548 -0.120764 -0.270192 57 73 85
0.0217614 -0.120324 -0.269676 61 75 85
0.0232592 -0.119884 -0.269155 65 79 89
0.0247482 -0.119444 -0.268632 63 80 89
0.0259657 -0.119468 -0.269066 62 78 90
0.0274414 -0.119027 -0.268538 66 83 92
0.0284006 -0.119514 -0.269934 60 79 88
0.029618 -0.119537 -0.270368 62 81 90
0.0308355 -0.11956 -0.270802 65 86 95
0.0318123 -0.120047 -0.272204 60 81 90
0.0330342 -0.120071 -0.27264 60 84 92
0.0342561 -0.120094 -0.273075 58 80 93
0.0354779 -0.120117 -0.273511 65 87 100
0.0366998 -0.120141 -0.273946 74 90 107
0.0379217 -0.120164 -0.274382 102 105 121
0.0391435 -0.120187 -0.274818 112 116 130
0.0403654 -0.120211 -0.275253 117 117 134
0.0413819 -0.120698 -0.276669 110 110 127
0.0426082 -0.120722 -0.277107 87 90 111
0.043638 -0.12121 -0.278528 82 83 111
0.0448687 -0.121233 -0.278966 113 112 132
0.0460994 -0.121257 -0.279405 81 79 103
0.04733 -0.12128 -0.279844 90 82 132
0.0487396 -0.120839 -0.279292 110 105 150
0.0499659 -0.120862 -0.279729 123 112 161
0.0511922 -0.120886 -0.280166 148 149 170
0.0525841 -0.120444 -0.279609 148 147 162
0.0539672 -0.120002 -0.279048 159 154 163
0.0553415 -0.119559 -0.278483 157 152 161
0.0565546 -0.119582 -0.278916 164 156 161
0.0579156 -0.11914 -0.278347 157 147 152
0.0591242 -0.119163 -0.278778 142 139 148
0.0604721 -0.11872 -0.278204 131 127 140
0.0616763 -0.118743 -0.278634 125 125 137
0.0628805 -0.118766 -0.279063 125 125 135
0.0642107 -0.118323 -0.278483 136 130 136
0.0656536 -0.117414 -0.27689 144 140 146
0.0669617 -0.11697 -0.276302 142 138 144
0.068261 -0.116526 -0.275711 133 130 139
0.0694432 -0.116549 -0.276132 104 102 119
0.0707292 -0.116105 -0.275537 92 87 114
0.0718075 -0.116594 -0.276975 65 66 94
0.0729897 -0.116617 -0.277397 82 83 98
0.0740812 -0.117106 -0.27884 60 60 77
0.0751815 -0.117595 -0.280286 37 37 63
0.0763725 -0.117618 -0.28071 50 41 69
0.0775635 -0.117641 -0.281135 66 54 77
0.0787545 -0.117664 -0.281559 78 69 85
0.0799455 -0.117686 -0.281984 113 111 111
0.0811365 -0.117709 -0.282409 111 109 109
0.0822677 -0.118199 -0.283866 111 109 110
0.0834077 -0.118689 -0.285326 113 111 112
0.0845566 -0.11918 -0.286789 111 109 109
0.0857143 -0.11967 -0.288256 61 55 61
0.0868807 -0.120161 -0.289726 94 90 90
0.0880938 -0.120184 -0.290158 93 76 73
0.0892735 -0.120675 -0.291633 97 83 79
0.0904621 -0.121166 -0.29311 112 108 109
0.091684 -0.121189 -0.293546 104 106 111
0.0928857 -0.121681 -0.295028 100 101 116
0.094112 -0.121704 -0.295465 88 90 109
0.0953158 -0.122664 -0.298002 88 78 101
0.096544 -0.123156 -0.299494 97 87 105
0.0977811 -0.123648 -0.300989 97 91 104
0.099027 -0.12414 -0.302487 110 110 111
0.100282 -0.124632 -0.303988 76 76 86
0.101534 -0.124656 -0.304435 53 61 83
0.102787 -0.12468 -0.304881 55 65 80
0.10404 -0.124704 -0.305328 57 61 80
0.105293 -0.124728 -0.305775 53 58 74
0.106545 -0.124752 -0.306221 67 61 72
0.107798 -0.124776 -0.306668 61 52 53
0.109051 -0.1248 -0.307114 41 41 41
0.110304 -0.124824 -0.307561 40 38 39
0.111556 -0.124847 -0.308007 52 50 50
0.112809 -0.124871 -0.308454 54 50 50
0.114062 -0.124895 -0.3089 63 56 57
0.115315 -0.124919 -0.309347 56 51 60
0.116567 -0.124943 -0.309793 48 42 55
0.11782 -0.124967 -0.31024 43 36 45
-0.0142197 -0.121413 -0.257882 58 81 158
-0.0133885 -0.121902 -0.259232 57 79 160
-0.0117583 -0.12146 -0.258759 54 75 159
-0.010137 -0.121018 -0.258283 44 82 160
-0.00891068 -0.121041 -0.25872 57 90 163
-0.0076844 -0.121065 -0.259157 51 84 157
-0.00645812 -0.121088 -0.259595 54 87 160
-0.00523184 -0.121111 -0.260032 65 99 170
-0.00363693 -0.120669 -0.259546 54 88 159
-0.00241506 -0.120692 -0.259982 68 93 165
-0.00119319 -0.120715 -0.260417 59 86 158
2.86761e-05 -0.120739 -0.260853 64 91 163
0.00125055 -0.120762 -0.261288 60 85 157
0.00212585 -0.121252 -0.262654 65 90 162
0.00369429 -0.120809 -0.26216 68 86 159
0.00525389 -0.120365 -0.261662 66 85 155
0.00680468 -0.119922 -0.26116 72 92 158
0.00834663 -0.119478 -0.260656 57 79 145
0.00955527 -0.119501 -0.261087 83 87 159
0.0107639 -0.119524 -0.261518 88 90 155
0.0119725 -0.119547 -0.261949 88 92 152
0.0128699 -0.120037 -0.263322 78 91 144
0.014083 -0.12006 -0.263755 63 78 118
0.0149936 -0.120551 -0.265133 57 69 93
0.015913 -0.121042 -0.266515 63 71 91
0.0168412 -0.121532 -0.2679 56 68 83
0.0177783 -0.122023 -0.269288 61 74 87
0.019009 -0.122047 -0.269726 61 74 87
0.0202397 -0.12207 -0.270165 57 73 85
0.0217464 -0.121626 -0.269648 61 75 85
0.0232442 -0.121181 -0.269128 65 79 89
0.0247332 -0.120737 -0.268605 63 80 89
0.0259507 -0.12076 -0.269039 62 78 90
0.0271682 -0.120783 -0.269473 66 83 92
0.0283856 -0.120806 -0.269907 60 79 88
0.0296031 -0.120829 -0.270341 62 81 90
0.0308205 -0.120853 -0.270775 66 87 96
0.032038 -0.120876 -0.271209 60 81 90
0.0330192 -0.121368 -0.272613 60 84 92
0.034241 -0.121391 -0.273048 58 80 93
0.0356904 -0.120946 -0.272511 65 87 100
0.0366848 -0.121438 -0.273919 74 90 107
0.0381253 -0.120992 -0.273379 102 105 121
0.0391285 -0.121484 -0.27479 112 116 130
0.0403504 -0.121508 -0.275226 117 117 134
0.0413669 -0.122 -0.276642 110 110 127
0.0425931 -0.122024 -0.277079 87 90 111
0.0436228 -0.122516 -0.2785 82 83 111
0.0448535 -0.12254 -0.278939 113 112 132
0.0460842 -0.122563 -0.279377 81 79 103
0.0474983 -0.122117 -0.278828 91 85 135
0.0487245 -0.12214 -0.279265 110 105 150
0.0499508 -0.122164 -0.279702 123 112 161
0.0513472 -0.121717 -0.279146 148 149 170
0.0525691 -0.121741 -0.279581 148 147 162
0.0539523 -0.121294 -0.27902 159 154 163
0.0553266 -0.120847 -0.278456 157 152 161
0.0565396 -0.12087 -0.278889 164 156 161
0.0579008 -0.120423 -0.27832 157 147 152
0.0591094 -0.120446 -0.278751 142 139 148
0.0604573 -0.119998 -0.278178 131 127 140
0.0616615 -0.120021 -0.278607 125 125 137
0.0629961 -0.119574 -0.278029 125 125 135
0.0643219 -0.119126 -0.277447 136 130 136
0.0656389 -0.118678 -0.276863 144 140 146
0.0669471 -0.11823 -0.276275 142 138 144
0.0682465 -0.117781 -0.275685 133 130 139
0.0694286 -0.117804 -0.276106 104 102 119
0.0706108 -0.117826 -0.276527 92 87 114
0.071793 -0.117849 -0.276949 65 66 94
0.07288 -0.118343 -0.27839 82 83 98
0.0740666 -0.118365 -0.278813 60 60 77
0.0751669 -0.11886 -0.280259 37 37 63
0.0763579 -0.118882 -0.280684 50 41 69
0.0775489 -0.118905 -0.281108 66 54 77
0.0786668 -0.119399 -0.282561 78 69 85
0.0798622 -0.119422 -0.282987 110 108 108
0.0810576 -0.119445 -0.283413 111 109 109
0.0821932 -0.11994 -0.284872 111 109 110
0.0833376 -0.120435 -0.286333 114 111 115
0.0845418 -0.120458 -0.286763 111 109 109
0.0856994 -0.120953 -0.288229 61 55 61
0.0868658 -0.121448 -0.289699 94 90 90
0.0880411 -0.121944 -0.291172 100 83 80
0.0892252 -0.12244 -0.292648 97 83 79
0.0904181 -0.122936 -0.294127 112 108 109
0.0916198 -0.123432 -0.295609 101 104 107
0.0928304 -0.123928 -0.297094 102 102 112
0.0940655 -0.123951 -0.297535 88 90 109
0.0952893 -0.124448 -0.299025 88 78 101
0.0965219 -0.124945 -0.300518 95 85 103
0.0977633 -0.125441 -0.302014 97 91 104
0.0990136 -0.125938 -0.303514 110 110 111
0.100266 -0.125962 -0.30396 76 76 86
0.101519 -0.125986 -0.304407 53 61 83
0.102772 -0.12601 -0.304853 55 65 80
0.104025 -0.126034 -0.3053 57 61 80
0.105253 -0.125584 -0.304684 58 63 79
0.106502 -0.125608 -0.305129 67 61 72
0.10775 -0.125632 -0.305574 56 47 48
0.110247 -0.125679 -0.306464 40 38 39
0.111495 -0.125703 -0.306909 52 50 50
0.112743 -0.125727 -0.307354 54 50 50
0.113992 -0.125751 -0.307799 63 56 57
0.0165325 -0.123306 -0.268821 56 68 83
0.0177632 -0.12333 -0.26926 61 74 87
0.0189939 -0.123353 -0.269699 61 74 87
0.0202246 -0.123377 -0.270138 57 73 85
0.0217313 -0.122928 -0.269621 61 75 85
0.0232292 -0.122478 -0.269101 65 79 89
0.0247183 -0.122029 -0.268578 63 80 89
0.0259357 -0.122052 -0.269012 62 78 90
0.0271532 -0.122075 -0.269446 66 83 92
0.0283707 -0.122099 -0.26988 60 79 88
0.0295881 -0.122122 -0.270314 62 81 90
0.0308056 -0.122145 -0.270748 66 87 96
0.032023 -0.122168 -0.271182 60 81 90
0.0330042 -0.122665 -0.272585 60 84 92
0.034226 -0.122688 -0.273021 58 80 93
0.0354479 -0.122711 -0.273456 65 87 100
0.0366698 -0.122735 -0.273892 74 90 107
0.0378916 -0.122758 -0.274327 102 105 121
0.0391135 -0.122781 -0.274763 112 116 130
0.0413518 -0.123302 -0.276615 110 110 127
0.042377 -0.123799 -0.278034 87 90 111
0.0436077 -0.123823 -0.278473 82 83 111
0.0448384 -0.123846 -0.278911 113 112 132
0.0462569 -0.123395 -0.278363 81 79 103
0.0474832 -0.123419 -0.2788 91 85 135
0.0487095 -0.123442 -0.279237 110 105 150
0.0499358 -0.123466 -0.279674 123 112 161
0.0513322 -0.123014 -0.279118 148 149 170
0.0525541 -0.123038 -0.279554 148 147 162
0.0539373 -0.122586 -0.278993 159 154 163
0.0553117 -0.122135 -0.278429 157 152 161
0.0565247 -0.122158 -0.278862 164 156 161
0.0578859 -0.121706 -0.278293 157 147 152
0.0590945 -0.121729 -0.278724 142 139 148
0.0604425 -0.121277 -0.278151 131 127 140
0.0616467 -0.1213 -0.27858 125 125 137
0.0629814 -0.120847 -0.278002 125 125 135
0.0643073 -0.120395 -0.277421 136 130 136
0.0656243 -0.119942 -0.276836 144 140 146
0.0669325 -0.119489 -0.276249 142 138 144
0.0682319 -0.119036 -0.275658 133 130 139
0.0695225 -0.118583 -0.275065 104 102 119
0.0707003 -0.118605 -0.275484 89 83 117
0.0717785 -0.119104 -0.276922 65 66 94
0.0729606 -0.119126 -0.277344 82 83 98
0.074052 -0.119625 -0.278787 60 60 77
0.0751522 -0.120124 -0.280233 37 37 63
0.0763432 -0.120147 -0.280657 50 41 69
0.0775342 -0.120169 -0.281082 66 54 77
0.0786521 -0.120668 -0.282534 78 69 85
0.0798475 -0.120691 -0.28296 110 108 108
0.0810429 -0.120714 -0.283386 111 109 109
0.0821784 -0.121213 -0.284845 111 109 110
0.0833782 -0.121236 -0.285272 113 111 112
0.084527 -0.121736 -0.286736 111 109 109
0.0856846 -0.122236 -0.288202 61 55 61
0.0868509 -0.122736 -0.289672 94 90 90
0.0880262 -0.123236 -0.291144 93 76 73
0.090316 -0.125669 -0.29723 109 105 106
0.0915555 -0.125693 -0.297671 101 104 107
0.092795 -0.125716 -0.298113 102 102 112
0.0940346 -0.12574 -0.298555 88 90 109
0.0952627 -0.126241 -0.300047 88 78 101
0.0964997 -0.126743 -0.301541 95 85 103
0.097748 -0.126766 -0.301986 97 91 104
0.0989982 -0.127268 -0.303486 110 110 111
0.100251 -0.127292 -0.303932 68 67 87
0.101504 -0.127316 -0.304379 53 61 83
0.102756 -0.12734 -0.304825 53 63 78
0.104009 -0.127364 -0.305272 57 61 80
0.105262 -0.127388 -0.305719 58 63 79
0.125075 -0.120598 -0.296974 30 26 27
0.126262 -0.120621 -0.297397 46 39 40
0.127448 -0.120643 -0.29782 49 45 38
0.128635 -0.120666 -0.298243 88 74 70
0.0186938 -0.125137 -0.270623 61 74 87
0.0202094 -0.124683 -0.27011 57 73 85
0.0271382 -0.123368 -0.269419 66 83 92
0.0283557 -0.123391 -0.269853 60 79 88
0.0295732 -0.123414 -0.270287 62 81 90
0.0307906 -0.123437 -0.270721 66 87 96
0.0317673 -0.123938 -0.272122 60 81 90
0.0329892 -0.123962 -0.272558 60 84 92
0.034211 -0.123985 -0.272994 58 80 93
0.0354329 -0.124008 -0.273429 65 87 100
0.0366548 -0.124032 -0.273865 74 90 107
0.0378766 -0.124055 -0.2743 102 105 121
0.0450156 -0.124674 -0.277899 113 112 132
0.0462419 -0.124697 -0.278336 81 79 103
0.0474681 -0.12472 -0.278773 91 85 135
0.0486944 -0.124744 -0.27921 110 105 150
0.0499207 -0.124767 -0.279647 123 112 161
0.0513172 -0.124311 -0.279091 148 149 170
0.0527049 -0.123855 -0.278532 148 147 162
0.0540837 -0.123399 -0.27797 159 154 163
0.0554538 -0.122943 -0.277404 157 153 159
0.056815 -0.122486 -0.276836 164 156 161
0.0580192 -0.122509 -0.277265 157 147 152
0.0592235 -0.122532 -0.277694 142 139 148
0.060567 -0.122075 -0.27712 131 127 140
0.0617668 -0.122098 -0.277547 125 125 137
0.0630972 -0.121641 -0.276968 125 125 135
0.0644187 -0.121184 -0.276385 136 130 136
0.0657314 -0.120726 -0.275799 144 140 146
0.0670352 -0.120269 -0.27521 142 138 144
0.0683303 -0.119811 -0.274618 132 129 138
0.0695081 -0.119833 -0.275038 104 102 119
0.0706858 -0.119856 -0.275458 89 83 117
0.0717639 -0.120359 -0.276896 65 66 94
0.0729461 -0.120381 -0.277317 82 83 98
0.0741283 -0.120404 -0.277739 54 54 71
0.075224 -0.120907 -0.279183 37 37 63
0.0764106 -0.12093 -0.279606 50 41 69
0.0775972 -0.120952 -0.280029 66 54 77
0.0787838 -0.120975 -0.280452 78 69 85
0.0799016 -0.121479 -0.281904 113 111 111
0.0810926 -0.121502 -0.282329 111 109 109
0.0822236 -0.122006 -0.283786 111 109 110
0.083419 -0.122029 -0.284212 113 111 112
0.0846144 -0.122051 -0.284638 111 109 109
0.0857631 -0.122556 -0.286101 58 52 58
0.0869206 -0.12306 -0.287567 95 91 91
0.0880491 -0.124047 -0.290077 93 76 73
0.0891282 -0.125997 -0.294677 90 76 72
0.0903008 -0.126985 -0.297202 109 105 106
0.091491 -0.127973 -0.299734 104 107 110
0.0927798 -0.127032 -0.298086 102 102 112
0.0940193 -0.127056 -0.298527 88 90 109
0.095236 -0.128044 -0.301069 88 78 101
0.0964773 -0.12855 -0.302565 95 85 103
0.0977301 -0.128574 -0.303011 97 91 104
0.0989846 -0.12908 -0.304512 110 110 111
0.100242 -0.129104 -0.30496 76 76 86
0.101488 -0.128646 -0.304351 53 61 83
0.102741 -0.12867 -0.304798 53 63 78
0.103994 -0.128693 -0.305244 57 61 80
0.105247 -0.128717 -0.305691 58 63 79
0.122687 -0.121812 -0.296102 21 20 17
0.123874 -0.121835 -0.296525 21 19 20
0.12506 -0.121858 -0.296948 30 26 27
0.126247 -0.12188 -0.297371 46 39 40
0.127434 -0.121903 -0.297794 49 45 38
0.12862 -0.121926 -0.298217 88 74 70
0.129807 -0.121948 -0.29864 142 133 128
0.034196 -0.125282 -0.272966 58 80 93
0.0354179 -0.125305 -0.273402 65 87 100
0.0364165 -0.125812 -0.274811 67 88 104
0.0376428 -0.125835 -0.275249 102 105 121
0.0450005 -0.125975 -0.277871 113 112 132
0.0462268 -0.125999 -0.278308 81 79 103
0.0474531 -0.126022 -0.278745 91 85 135
0.0486793 -0.126046 -0.279183 110 105 150
0.0499056 -0.126069 -0.27962 123 112 161
0.0513022 -0.125608 -0.279064 144 146 165
0.0528558 -0.124664 -0.27751 148 147 162
0.0543918 -0.123719 -0.275951 157 152 161
0.0559101 -0.122773 -0.274385 154 150 156
0.0569528 -0.12328 -0.27581 164 156 161
0.0583009 -0.122819 -0.275237 157 146 153
0.0594963 -0.122841 -0.275663 140 136 149
0.0608311 -0.12238 -0.275085 130 126 139
0.0620221 -0.122402 -0.27551 125 125 137
0.0633436 -0.12194 -0.274927 126 127 135
0.0646564 -0.121478 -0.274341 141 135 141
0.0658386 -0.121501 -0.274763 144 140 146
0.0671381 -0.121038 -0.274172 142 138 144
0.0684288 -0.120576 -0.273579 132 129 138
0.0696021 -0.120598 -0.273997 104 102 119
0.0706714 -0.121106 -0.275432 89 83 117
0.0718491 -0.121128 -0.275852 65 66 94
0.0730269 -0.121151 -0.276271 79 80 95
0.0742046 -0.121173 -0.276691 54 54 71
0.0753824 -0.121196 -0.277111 38 37 65
0.0765601 -0.121218 -0.277531 57 42 66
0.0776603 -0.121726 -0.278977 66 54 77
0.0788424 -0.121749 -0.279398 79 70 86
0.0800246 -0.121771 -0.279819 113 111 111
0.0811424 -0.12228 -0.281271 111 109 109
0.0823289 -0.122303 -0.281694 111 108 112
0.0834599 -0.122811 -0.283151 113 111 112
0.0846509 -0.122834 -0.283576 104 102 102
0.0858419 -0.122857 -0.284 58 52 58
0.0869906 -0.123366 -0.285463 95 91 91
0.0880721 -0.124848 -0.28901 93 76 73
0.0891466 -0.126817 -0.293607 97 83 79
0.0902855 -0.128301 -0.297174 109 105 106
0.0914756 -0.129298 -0.299706 104 107 110
0.095324 -0.124986 -0.291595 86 76 99
0.0965255 -0.125496 -0.293077 97 90 106
0.100109 -0.12118 -0.284871 60 65 88
0.103649 -0.121735 -0.287187 55 60 76
0.104826 -0.121757 -0.287607 54 58 72
0.106004 -0.12178 -0.288026 65 56 57
0.107182 -0.121802 -0.288446 40 38 38
0.108397 -0.122312 -0.289933 38 38 38
0.109579 -0.122335 -0.290354 50 48 49
0.110807 -0.122846 -0.291846 49 47 47
0.111993 -0.122868 -0.292269 61 54 55
0.11318 -0.122891 -0.292692 64 57 59
0.114308 -0.122425 -0.29204 51 47 60
0.11549 -0.122448 -0.292461 51 43 56
0.116672 -0.12247 -0.292883 32 28 34
0.117854 -0.122493 -0.293304 31 28 32
0.119036 -0.122515 -0.293725 28 26 27
0.120218 -0.122538 -0.294147 28 26 26
0.121401 -0.12256 -0.294568 21 18 15
0.122583 -0.122583 -0.294989 21 20 17
0.123765 -0.122606 -0.295411 21 19 20
0.124947 -0.122628 -0.295832 30 26 27
0.126129 -0.122651 -0.296254 46 39 40
0.127311 -0.122673 -0.296675 53 47 40
0.128494 -0.122696 -0.297096 88 74 70
0.129676 -0.122718 -0.297518 147 138 133
0.0565238 -0.122086 -0.270368 157 153 159
0.0577015 -0.122109 -0.270787 162 150 155
0.0588793 -0.122131 -0.271207 157 146 153
0.0610954 -0.122666 -0.273051 130 126 139
0.0624126 -0.122199 -0.272467 128 128 140
0.0635903 -0.122221 -0.272887 126 127 135
0.0647681 -0.122244 -0.273306 141 135 141
0.0660677 -0.121777 -0.272716 145 141 147
0.067241 -0.121799 -0.273134 142 138 144
0.0684144 -0.121821 -0.273552 132 129 138
0.0696963 -0.121354 -0.272956 104 101 121
0.070761 -0.121866 -0.274389 89 83 117
0.0719344 -0.121888 -0.274807 65 66 94
0.0731077 -0.121911 -0.275225 79 80 95
0.0742811 -0.121933 -0.275644 54 54 71
0.0754544 -0.121956 -0.276062 38 37 65
0.0766278 -0.121978 -0.27648 57 42 66
0.0778011 -0.122 -0.276898 66 54 77
0.0789012 -0.122513 -0.278344 79 70 86
0.080079 -0.122536 -0.278764 113 111 111
0.0812567 -0.122558 -0.279184 112 110 111
0.0823744 -0.123071 -0.280636 111 108 112
0.0835566 -0.123094 -0.281057 112 110 111
0.0847388 -0.123116 -0.281479 104 102 102
0.0858741 -0.12363 -0.282937 58 52 58
0.0871031 -0.123162 -0.282321 101 94 89
0.0881713 -0.124658 -0.285863 94 75 72
0.089501 -0.122715 -0.282123 102 95 96
0.090708 -0.122247 -0.281499 102 106 106
0.0918565 -0.12276 -0.282962 104 105 113
0.093014 -0.123274 -0.284428 91 94 110
0.0942121 -0.122805 -0.283802 89 82 103
0.0953783 -0.123319 -0.285271 95 84 105
0.0965676 -0.12285 -0.284641 98 92 105
0.0977481 -0.122381 -0.284009 113 109 110
0.0989214 -0.122403 -0.284427 83 83 93
0.100095 -0.122426 -0.284845 60 65 88
0.101268 -0.122448 -0.285263 60 69 87
0.102441 -0.12247 -0.285682 57 62 78
0.103615 -0.122493 -0.2861 55 60 76
0.104812 -0.123007 -0.28758 54 58 72
0.10599 -0.12303 -0.288 65 56 57
0.107167 -0.123052 -0.28842 40 38 38
0.108382 -0.123567 -0.289906 38 38 38
0.109564 -0.12359 -0.290328 50 48 49
0.110792 -0.124105 -0.291819 49 47 47
0.111979 -0.124128 -0.292242 61 54 55
0.113111 -0.123658 -0.291592 64 57 59
0.114293 -0.12368 -0.292013 51 47 60
0.115475 -0.123703 -0.292435 51 43 56
0.116657 -0.123725 -0.292856 32 28 34
0.11784 -0.123748 -0.293278 31 28 32
0.119022 -0.12377 -0.293699 28 26 27
0.120204 -0.123793 -0.29412 28 26 26
0.121386 -0.123815 -0.294542 21 18 15
0.122568 -0.123838 -0.294963 21 20 17
0.12375 -0.12386 -0.295384 21 19 20
0.124933 -0.123883 -0.295806 33 29 30
0.126115 -0.123906 -0.296227 46 39 40
0.127297 -0.123928 -0.296649 53 47 40
0.128479 -0.123951 -0.29707 88 74 70
0.129545 -0.123479 -0.296396 147 138 133
0.0523227 -0.121767 -0.265688 142 142 168
0.0534872 -0.121789 -0.266104 146 146 163
0.0546517 -0.121812 -0.266519 155 149 160
0.0556547 -0.122327 -0.26793 157 152 161
0.0568236 -0.12235 -0.268346 157 153 159
0.0579925 -0.122372 -0.268763 161 149 154
0.0591615 -0.122394 -0.26918 157 146 153
0.0603304 -0.122416 -0.269596 135 131 144
0.0614993 -0.122439 -0.270013 128 124 137
0.0626683 -0.122461 -0.27043 126 126 138
0.0638372 -0.122483 -0.270846 126 127 135
0.0650062 -0.122506 -0.271263 141 135 141
0.0661751 -0.122528 -0.27168 145 141 147
0.067344 -0.12255 -0.272096 141 137 143
0.068513 -0.122572 -0.272513 132 129 138
0.0696819 -0.122595 -0.27293 104 101 121
0.0708508 -0.122617 -0.273346 89 83 117
0.0720198 -0.122639 -0.273763 66 67 95
0.0731887 -0.122662 -0.27418 79 80 95
0.0743577 -0.122684 -0.274597 50 52 71
0.07544 -0.123201 -0.276036 38 37 65
0.0766134 -0.123224 -0.276454 57 42 66
0.0777867 -0.123246 -0.276872 66 54 77
0.0789601 -0.123268 -0.277291 79 70 86
0.0801334 -0.123291 -0.277709 113 111 111
0.0813068 -0.123313 -0.278127 112 110 111
0.0824801 -0.123335 -0.278545 114 111 115
0.0836535 -0.123358 -0.278964 112 110 111
0.0848268 -0.12338 -0.279382 108 104 105
0.0860002 -0.123403 -0.2798 70 66 72
0.087131 -0.123921 -0.281257 101 94 89
0.0883468 -0.123447 -0.280637 93 74 71
0.0895202 -0.12347 -0.281055 102 95 96
0.0906936 -0.123492 -0.281473 102 106 106
0.0918669 -0.123514 -0.281891 104 105 113
0.0930402 -0.123537 -0.282309 91 94 110
0.0942136 -0.123559 -0.282728 89 82 103
0.0953869 -0.123582 -0.283146 95 84 105
0.0965603 -0.123604 -0.283564 98 92 105
0.0977336 -0.123626 -0.283982 113 109 110
0.098907 -0.123649 -0.284401 83 83 93
0.10008 -0.123671 -0.284819 60 65 88
0.101254 -0.123693 -0.285237 60 69 87
0.102427 -0.123716 -0.285655 57 62 78
0.1036 -0.123738 -0.286074 55 60 76
0.104797 -0.124258 -0.287554 54 58 72
0.105975 -0.12428 -0.287974 65 56 57
0.107153 -0.124303 -0.288394 40 38 38
0.108368 -0.124822 -0.28988 38 38 38
0.10955 -0.124845 -0.290301 50 48 49
0.110778 -0.125365 -0.291793 49 47 47
0.111964 -0.125387 -0.292216 61 54 55
0.113096 -0.124912 -0.291566 64 57 59
0.114278 -0.124935 -0.291987 51 47 60
0.115461 -0.124957 -0.292408 51 43 56
0.116643 -0.12498 -0.29283 32 28 34
0.117825 -0.125003 -0.293251 31 28 32
0.119007 -0.125025 -0.293673 28 26 27
0.120189 -0.125048 -0.294094 28 26 26
0.121372 -0.12507 -0.294515 21 18 15
0.122554 -0.125093 -0.294937 17 18 15
0.123736 -0.125115 -0.295358 21 19 20
0.124918 -0.125138 -0.295779 33 29 30
0.125997 -0.124662 -0.295111 46 39 40
0.127175 -0.124684 -0.29553 53 47 40
0.128353 -0.124707 -0.29595 88 74 70
0.12953 -0.124729 -0.29637 147 138 133
-0.00859427 -0.120839 -0.241847 52 77 154
-0.00743857 -0.120861 -0.242259 57 79 159
0.0174544 -0.120334 -0.249025 64 80 124
0.0186013 -0.120356 -0.249434 57 69 93
0.0197482 -0.120377 -0.249843 62 70 90
0.0208951 -0.120399 -0.250251 57 69 84
0.0441567 -0.122848 -0.262757 90 89 109
0.0453212 -0.12287 -0.263172 78 80 106
0.0476502 -0.122914 -0.264002 119 120 135
0.0488148 -0.122937 -0.264417 86 76 122
0.0499793 -0.122959 -0.264832 91 87 135
0.0511438 -0.122981 -0.265247 110 102 152
0.0523083 -0.123003 -0.265662 142 142 168
0.0534729 -0.123026 -0.266078 146 146 163
0.0546374 -0.123048 -0.266493 155 149 160
0.0558019 -0.12307 -0.266908 157 152 161
0.0569664 -0.123092 -0.267323 157 153 159
0.058131 -0.123114 -0.267738 161 149 154
0.0592955 -0.123137 -0.268153 157 148 155
0.06046 -0.123159 -0.268568 135 131 144
0.0616246 -0.123181 -0.268983 129 125 138
0.0627891 -0.123203 -0.269398 126 126 138
0.0639536 -0.123225 -0.269814 129 127 133
0.0649918 -0.123746 -0.271237 141 135 141
0.0661607 -0.123769 -0.271654 145 141 147
0.0673297 -0.123791 -0.27207 141 137 143
0.0686117 -0.123314 -0.271474 132 132 142
0.0696675 -0.123836 -0.272904 104 101 121
0.0708365 -0.123858 -0.27332 89 83 117
0.0720054 -0.12388 -0.273737 66 67 95
0.0731744 -0.123902 -0.274154 79 80 95
0.0743433 -0.123925 -0.27457 50 52 71
0.0755122 -0.123947 -0.274987 38 37 65
0.0766812 -0.123969 -0.275404 58 43 67
0.0778501 -0.123992 -0.27582 66 54 77
0.0789457 -0.124514 -0.277264 79 70 86
0.080119 -0.124536 -0.277683 113 111 111
0.0812923 -0.124559 -0.278101 112 110 111
0.0824657 -0.124581 -0.278519 114 111 115
0.0836391 -0.124603 -0.278937 112 110 111
0.0848124 -0.124626 -0.279356 108 104 105
0.0859857 -0.124648 -0.279774 70 66 72
0.0871591 -0.12467 -0.280192 101 94 89
0.0883324 -0.124693 -0.28061 93 74 71
0.0895058 -0.124715 -0.281029 102 95 96
0.0906791 -0.124738 -0.281447 102 106 106
0.0918525 -0.12476 -0.281865 104 105 113
0.0930258 -0.124782 -0.282283 91 94 110
0.0941992 -0.124805 -0.282702 89 82 103
0.0953725 -0.124827 -0.28312 95 84 105
0.0965459 -0.124849 -0.283538 98 92 105
0.0977221 -0.124371 -0.282904 109 109 110
0.0988926 -0.124894 -0.284375 83 83 93
0.100066 -0.124917 -0.284793 60 65 88
0.101239 -0.124939 -0.285211 60 69 87
0.102413 -0.124961 -0.285629 57 62 78
0.103586 -0.124984 -0.286048 55 60 76
0.104783 -0.125508 -0.287528 54 58 72
0.105961 -0.12553 -0.287947 65 56 57
0.107138 -0.125553 -0.288367 40 38 38
0.108353 -0.126077 -0.289854 38 38 38
0.109535 -0.1261 -0.290275 50 48 49
0.110717 -0.126122 -0.290696 49 47 47
0.1119 -0.126145 -0.291118 61 54 55
0.113082 -0.126167 -0.291539 64 57 59
0.114264 -0.12619 -0.291961 51 47 60
0.115446 -0.126212 -0.292382 51 43 56
0.116561 -0.125732 -0.291726 32 28 34
0.117738 -0.125755 -0.292146 28 25 29
0.118916 -0.125777 -0.292565 28 26 27
0.120094 -0.1258 -0.292985 27 25 25
0.121272 -0.125822 -0.293405 21 18 15
0.122449 -0.125845 -0.293825 17 18 15
0.123627 -0.125867 -0.294245 21 19 20
0.124805 -0.12589 -0.294665 33 29 30
0.125983 -0.125912 -0.295084 46 39 40
0.12716 -0.125935 -0.295504 53 47 40
0.128338 -0.125957 -0.295924 88 74 70
0.129516 -0.125979 -0.296344 147 138 133
-0.00976418 -0.122044 -0.241409 67 99 156
-0.00860847 -0.122066 -0.241821 52 77 154
-0.00745277 -0.122088 -0.242233 57 79 159
0.0162934 -0.121529 -0.248591 83 92 149
0.0174403 -0.121551 -0.248999 64 80 124
0.0185872 -0.121573 -0.249408 57 69 93
0.0197341 -0.121595 -0.249817 62 70 90
0.020881 -0.121617 -0.250226 57 69 84
0.0217338 -0.122139 -0.251583 57 69 84
0.0228851 -0.122161 -0.251994 62 75 88
0.0237512 -0.122683 -0.253356 58 74 86
0.0249069 -0.122705 -0.253768 61 75 85
0.0415987 -0.124541 -0.262877 118 119 134
0.0429778 -0.124062 -0.262316 109 109 126
0.0441424 -0.124084 -0.262731 90 89 109
0.0453069 -0.124106 -0.263146 78 80 106
0.0466684 -0.123626 -0.262578 102 102 128
0.0476359 -0.124151 -0.263976 119 120 135
0.0488005 -0.124173 -0.264391 86 76 122
0.049965 -0.124195 -0.264806 91 87 135
0.0511295 -0.124217 -0.265221 110 102 152
0.052294 -0.124239 -0.265636 142 142 168
0.0534586 -0.124262 -0.266052 146 146 163
0.0546231 -0.124284 -0.266467 155 149 160
0.0557876 -0.124306 -0.266882 157 152 161
0.0569521 -0.124328 -0.267297 157 153 159
0.0581167 -0.12435 -0.267712 161 149 154
0.0592812 -0.124373 -0.268127 157 148 155
0.0604457 -0.124395 -0.268542 135 131 144
0.0616102 -0.124417 -0.268957 129 125 138
0.0627748 -0.124439 -0.269372 126 126 138
0.0639393 -0.124462 -0.269788 129 127 133
0.0651038 -0.124484 -0.270203 141 135 141
0.0662684 -0.124506 -0.270618 145 141 147
0.0674329 -0.124528 -0.271033 141 137 143
0.0685974 -0.12455 -0.271448 132 132 142
0.0697619 -0.124573 -0.271863 104 101 121
0.0709265 -0.124595 -0.272278 91 85 119
0.0719911 -0.125121 -0.273711 66 67 95
0.07316 -0.125143 -0.274128 79 80 95
0.0743289 -0.125166 -0.274544 50 52 71
0.0754979 -0.125188 -0.274961 38 37 65
0.0766668 -0.12521 -0.275378 58 43 67
0.0778357 -0.125232 -0.275794 66 54 77
0.0789312 -0.125759 -0.277238 79 70 86
0.0801046 -0.125782 -0.277656 113 111 111
0.0812779 -0.125804 -0.278075 112 110 111
0.0824513 -0.125826 -0.278493 114 111 115
0.0836246 -0.125849 -0.278911 112 110 111
0.084798 -0.125871 -0.279329 108 104 105
0.0859713 -0.125894 -0.279748 70 66 72
0.0871447 -0.125916 -0.280166 101 94 89
0.088318 -0.125938 -0.280584 93 74 71
0.0894914 -0.125961 -0.281002 102 95 96
0.0906647 -0.125983 -0.281421 102 106 106
0.0918381 -0.126005 -0.281839 104 105 113
0.0930114 -0.126028 -0.282257 91 94 110
0.0941848 -0.12605 -0.282675 89 82 103
0.0953581 -0.126073 -0.283094 95 84 105
0.0965387 -0.125589 -0.282461 98 92 105
0.0977077 -0.125611 -0.282878 109 109 110
0.0988766 -0.125634 -0.283294 83 83 93
0.100046 -0.125656 -0.283711 56 61 84
0.101225 -0.126184 -0.285185 60 69 87
0.102398 -0.126207 -0.285603 57 62 78
0.103572 -0.126229 -0.286021 55 60 76
0.104745 -0.126252 -0.28644 54 58 72
0.105946 -0.12678 -0.287921 65 56 57
0.107124 -0.126803 -0.288341 40 38 38
0.108339 -0.127332 -0.289827 38 38 38
0.109521 -0.127355 -0.290249 50 48 49
0.110703 -0.127377 -0.29067 49 47 47
0.111885 -0.1274 -0.291091 61 54 55
0.113067 -0.127422 -0.291513 64 57 59
0.114249 -0.127445 -0.291934 51 47 60
0.115368 -0.12696 -0.29128 48 40 53
0.116546 -0.126983 -0.2917 32 28 34
0.117724 -0.127005 -0.292119 28 25 29
0.118902 -0.127027 -0.292539 28 26 27
0.120079 -0.12705 -0.292959 27 25 25
0.121257 -0.127072 -0.293379 21 18 15
0.122435 -0.127095 -0.293799 17 18 15
0.123613 -0.127117 -0.294218 21 19 20
0.12479 -0.12714 -0.294638 33 29 30
0.125968 -0.127162 -0.295058 46 39 40
0.127146 -0.127185 -0.295478 53 47 40
0.128324 -0.127207 -0.295898 88 74 70
0.129501 -0.12723 -0.296318 147 138 133
-0.00862267 -0.123293 -0.241795 52 77 154
-0.0078713 -0.123818 -0.243116 57 79 159
0.0162793 -0.122747 -0.248565 83 92 149
0.0174262 -0.122768 -0.248974 64 80 124
0.0185731 -0.12279 -0.249383 57 69 93
0.01972 -0.122812 -0.249791 62 70 90
0.0208669 -0.122834 -0.2502 57 69 84
0.0217197 -0.123361 -0.251557 57 69 84
0.022871 -0.123383 -0.251968 62 75 88
0.023737 -0.12391 -0.25333 58 74 86
0.0248927 -0.123932 -0.253742 61 75 85
0.041799 -0.125276 -0.261875 118 119 134
0.0429635 -0.125298 -0.26229 109 109 126
0.044128 -0.12532 -0.262705 90 89 109
0.045494 -0.124836 -0.262138 78 80 106
0.0466541 -0.124858 -0.262552 102 102 128
0.0478142 -0.12488 -0.262966 119 120 135
0.0489743 -0.124902 -0.263379 84 76 126
0.0499507 -0.125431 -0.26478 91 87 135
0.0511152 -0.125453 -0.265195 110 102 152
0.0522797 -0.125476 -0.26561 142 142 168
0.0534443 -0.125498 -0.266026 146 146 163
0.0546088 -0.12552 -0.266441 155 149 160
0.0557733 -0.125542 -0.266856 157 152 161
0.0569378 -0.125564 -0.267271 157 153 159
0.0581024 -0.125587 -0.267686 161 149 154
0.0592669 -0.125609 -0.268101 157 148 155
0.0604314 -0.125631 -0.268516 135 131 144
0.0615959 -0.125653 -0.268931 129 125 138
0.0627605 -0.125675 -0.269346 126 126 138
0.063925 -0.125698 -0.269762 129 127 133
0.0650895 -0.12572 -0.270177 141 135 141
0.066254 -0.125742 -0.270592 145 141 147
0.0674186 -0.125764 -0.271007 141 137 143
0.0685831 -0.125787 -0.271422 132 132 142
0.0697476 -0.125809 -0.271837 104 101 121
0.0709121 -0.125831 -0.272252 91 85 119
0.0720767 -0.125853 -0.272667 66 67 95
0.0731456 -0.126384 -0.274102 79 80 95
0.0743146 -0.126406 -0.274518 50 52 71
0.0754835 -0.126429 -0.274935 38 37 65
0.0766525 -0.126451 -0.275352 58 43 67
0.0778214 -0.126473 -0.275768 66 54 77
0.0789168 -0.127005 -0.277212 79 70 86
0.0800902 -0.127027 -0.27763 113 111 111
0.0812635 -0.12705 -0.278048 112 110 111
0.0824369 -0.127072 -0.278467 114 111 115
0.0836102 -0.127094 -0.278885 112 110 111
0.0847836 -0.127117 -0.279303 108 104 105
0.086004 -0.126629 -0.278685 78 74 80
0.0871729 -0.126652 -0.279102 101 94 89
0.0883036 -0.127184 -0.280558 93 74 71
0.0895108 -0.126696 -0.279935 102 95 96
0.0906503 -0.127229 -0.281394 102 106 106
0.0918237 -0.127251 -0.281813 104 105 113
0.092997 -0.127273 -0.282231 91 94 110
0.0941703 -0.127296 -0.282649 89 82 103
0.0953554 -0.126808 -0.282018 94 83 104
0.0965244 -0.12683 -0.282435 98 92 105
0.0976933 -0.126852 -0.282852 109 109 110
0.0988623 -0.126875 -0.283268 83 83 93
0.100031 -0.126897 -0.283685 56 61 84
0.1012 -0.126919 -0.284102 60 69 87
0.102384 -0.127452 -0.285577 57 62 78
0.103557 -0.127475 -0.285995 55 60 76
0.10473 -0.127497 -0.286413 54 58 72
0.105932 -0.128031 -0.287895 65 56 57
0.10711 -0.128053 -0.288315 40 38 38
0.108287 -0.128076 -0.288734 38 38 38
0.109506 -0.128609 -0.290222 50 48 49
0.110688 -0.128632 -0.290644 49 47 47
0.111871 -0.128654 -0.291065 61 54 55
0.113053 -0.128677 -0.291486 64 57 59
0.114176 -0.128188 -0.290834 51 47 60
0.115354 -0.12821 -0.291253 48 40 53
0.116532 -0.128233 -0.291673 32 28 34
0.117709 -0.128255 -0.292093 28 25 29
0.118887 -0.128278 -0.292513 28 26 27
0.120065 -0.1283 -0.292933 27 25 25
0.121243 -0.128323 -0.293353 21 18 15
0.12242 -0.128345 -0.293772 17 18 15
0.123598 -0.128368 -0.294192 21 19 20
0.124776 -0.12839 -0.294612 33 29 30
0.125954 -0.128412 -0.295032 46 39 40
0.127131 -0.128435 -0.295452 53 47 40
0.128309 -0.128457 -0.295871 88 74 70
0.129487 -0.12848 -0.296291 147 138 133
-0.00863687 -0.12452 -0.241769 52 77 154
-0.00788555 -0.125049 -0.24309 57 79 159
-0.00672543 -0.125071 -0.243504 50 71 155
-0.00596088 -0.125601 -0.244829 56 82 163
0.0162653 -0.123964 -0.248539 83 92 149
0.0174121 -0.123986 -0.248948 64 80 124
0.018559 -0.124008 -0.249357 57 69 93
0.0197059 -0.12403 -0.249766 62 70 90
0.0208528 -0.124051 -0.250175 57 69 84
0.0217056 -0.124583 -0.251532 57 69 84
0.0225671 -0.125115 -0.252892 62 75 88
0.0237228 -0.125137 -0.253304 58 74 86
0.0248785 -0.125159 -0.253716 61 75 85
0.0429492 -0.126534 -0.262264 109 109 126
0.0441137 -0.126556 -0.262679 90 89 109
0.0454797 -0.126067 -0.262113 78 80 106
0.0466399 -0.126089 -0.262526 102 102 128
0.0478 -0.126111 -0.26294 119 120 135
0.0487718 -0.126645 -0.264339 86 76 122
0.0499364 -0.126667 -0.264754 91 87 135
0.0511009 -0.126689 -0.265169 110 102 152
0.0522654 -0.126712 -0.265584 142 142 168
0.0534299 -0.126734 -0.266 146 146 163
0.0545945 -0.126756 -0.266415 155 149 160
0.055759 -0.126778 -0.26683 157 152 161
0.0569235 -0.126801 -0.267245 157 153 159
0.0580881 -0.126823 -0.26766 161 149 154
0.0592526 -0.126845 -0.268075 157 148 155
0.0604171 -0.126867 -0.26849 135 131 144
0.0615816 -0.126889 -0.268905 129 125 138
0.0627462 -0.126912 -0.26932 126 126 138
0.0639107 -0.126934 -0.269736 129 127 133
0.0650752 -0.126956 -0.270151 141 135 141
0.0662397 -0.126978 -0.270566 145 141 147
0.0674043 -0.127 -0.270981 141 137 143
0.0685688 -0.127023 -0.271396 132 132 142
0.0697333 -0.127045 -0.271811 104 101 121
0.0708978 -0.127067 -0.272226 91 85 119
0.0720624 -0.127089 -0.272641 66 67 95
0.0732269 -0.127111 -0.273056 76 75 90
0.0743002 -0.127647 -0.274492 50 52 71
0.0754691 -0.12767 -0.274909 38 37 65
0.0766381 -0.127692 -0.275325 58 43 67
0.077807 -0.127714 -0.275742 66 54 77
0.078976 -0.127736 -0.276159 86 78 89
0.0800758 -0.128273 -0.277604 113 111 111
0.0812491 -0.128295 -0.278022 112 110 111
0.0824828 -0.127803 -0.277409 114 111 115
0.0836517 -0.127826 -0.277826 112 110 111
0.0848207 -0.127848 -0.278242 108 104 105
0.0859896 -0.12787 -0.278659 78 74 80
0.0871585 -0.127892 -0.279076 101 94 89
0.0882892 -0.128429 -0.280532 93 74 71
0.0894964 -0.127937 -0.279909 102 95 96
0.0906359 -0.128474 -0.281368 102 106 106
0.0918092 -0.128496 -0.281786 104 105 113
0.0929826 -0.128519 -0.282205 91 94 110
0.0941559 -0.128541 -0.282623 89 82 103
0.0953293 -0.128564 -0.283041 95 84 105
0.0965026 -0.128586 -0.283459 98 92 105
0.097679 -0.128093 -0.282826 109 109 110
0.0988479 -0.128115 -0.283242 83 83 93
0.100017 -0.128138 -0.283659 56 61 84
0.101186 -0.12816 -0.284076 60 69 87
0.102369 -0.128698 -0.285551 57 62 78
0.103543 -0.12872 -0.285969 55 60 76
0.104716 -0.128743 -0.286387 54 58 72
0.105889 -0.128765 -0.286805 65 56 57
0.107095 -0.129303 -0.288288 40 38 38
0.108273 -0.129326 -0.288708 38 38 38
0.109451 -0.129348 -0.289128 50 48 49
0.110628 -0.129371 -0.289548 49 47 47
0.111806 -0.129393 -0.289968 61 54 55
0.112984 -0.129416 -0.290387 64 56 61
0.114162 -0.129438 -0.290807 51 47 60
0.115339 -0.12946 -0.291227 48 40 53
0.116517 -0.129483 -0.291647 32 28 34
0.117695 -0.129505 -0.292067 28 25 29
0.118873 -0.129528 -0.292487 28 26 27
0.12005 -0.12955 -0.292906 27 25 25
0.121228 -0.129573 -0.293326 21 18 15
0.122406 -0.129595 -0.293746 17 18 15
0.123584 -0.129618 -0.294166 21 19 20
0.124761 -0.12964 -0.294586 33 29 30
0.125939 -0.129663 -0.295005 46 39 40
0.127117 -0.129685 -0.295425 53 47 40
0.128406 -0.130225 -0.296938 88 74 70
0.129473 -0.12973 -0.296265 147 138 133
-0.00980677 -0.125724 -0.241331 67 99 156
-0.00865107 -0.125746 -0.241743 52 77 154
-0.0078998 -0.126281 -0.243064 57 79 159
-0.00673969 -0.126303 -0.243478 50 71 155
-0.00597519 -0.126837 -0.244803 56 82 163
-0.00441946 -0.126347 -0.244305 50 85 160
-0.00287255 -0.125857 -0.243803 52 85 158
-0.00171684 -0.125879 -0.244215 51 84 157
0.017398 -0.125203 -0.248923 64 80 124
0.0185449 -0.125225 -0.249331 57 69 93
0.0196918 -0.125247 -0.24974 62 70 90
0.0205401 -0.125783 -0.251096 58 70 85
0.0216914 -0.125805 -0.251506 57 69 84
0.0225529 -0.126342 -0.252866 62 75 88
0.0237086 -0.126364 -0.253278 58 74 86
0.0248643 -0.126386 -0.25369 61 75 85
0.0443054 -0.127276 -0.261673 90 92 111
0.0454655 -0.127298 -0.262087 78 80 106
0.0466256 -0.127321 -0.2625 102 102 128
0.0477857 -0.127343 -0.262914 119 120 135
0.0487575 -0.127881 -0.264313 86 76 122
0.0499221 -0.127903 -0.264728 91 87 135
0.0510866 -0.127926 -0.265143 110 102 152
0.0522511 -0.127948 -0.265558 142 142 168
0.0534156 -0.12797 -0.265974 146 146 163
0.0545802 -0.127992 -0.266389 155 149 160
0.0557447 -0.128014 -0.266804 157 152 161
0.0569092 -0.128037 -0.267219 157 153 159
0.0580737 -0.128059 -0.267634 161 149 154
0.0592383 -0.128081 -0.268049 157 148 155
0.0604028 -0.128103 -0.268464 135 131 144
0.0615673 -0.128126 -0.268879 129 125 138
0.0627319 -0.128148 -0.269294 126 126 138
0.0638964 -0.12817 -0.26971 129 127 133
0.0650609 -0.128192 -0.270125 141 135 141
0.0662254 -0.128214 -0.27054 145 141 147
0.06739 -0.128237 -0.270955 141 137 143
0.0685545 -0.128259 -0.27137 132 132 142
0.069719 -0.128281 -0.271785 104 101 121
0.0708835 -0.128303 -0.2722 91 85 119
0.0720481 -0.128325 -0.272615 66 67 95
0.0732126 -0.128348 -0.27303 76 75 90
0.0742859 -0.128888 -0.274466 50 52 71
0.0754548 -0.12891 -0.274883 38 37 65
0.0766237 -0.128933 -0.275299 58 43 67
0.0777927 -0.128955 -0.275716 66 54 77
0.0789616 -0.128977 -0.276133 86 78 89
0.0801305 -0.129 -0.276549 113 111 111
0.0812995 -0.129022 -0.276966 109 107 108
0.0824684 -0.129044 -0.277383 114 111 115
0.0836374 -0.129066 -0.277799 112 110 111
0.0848063 -0.129089 -0.278216 108 104 105
0.0859752 -0.129111 -0.278633 78 74 80
0.0871014 -0.129652 -0.280087 101 94 89
0.0883131 -0.129156 -0.279466 91 72 69
0.0894481 -0.129697 -0.280924 102 95 96
0.0906215 -0.12972 -0.281342 102 106 106
0.0917948 -0.129742 -0.28176 104 105 113
0.0929682 -0.129764 -0.282179 91 94 110
0.0941415 -0.129787 -0.282597 89 82 103
0.0953149 -0.129809 -0.283015 95 84 105
0.0964882 -0.129831 -0.283433 98 92 105
0.0976616 -0.129854 -0.283852 113 109 110
0.0988335 -0.129356 -0.283216 83 83 93
0.100002 -0.129379 -0.283633 56 61 84
0.101171 -0.129401 -0.28405 60 69 87
0.102355 -0.129943 -0.285524 57 61 80
0.103528 -0.129966 -0.285943 55 60 76
0.104702 -0.129988 -0.286361 55 59 73
0.105875 -0.13001 -0.286779 65 56 57
0.107081 -0.130553 -0.288262 40 38 38
0.108258 -0.130576 -0.288682 38 38 38
0.109436 -0.130598 -0.289102 50 48 49
0.110614 -0.130621 -0.289522 49 47 47
0.111792 -0.130643 -0.289941 61 54 55
0.112969 -0.130666 -0.290361 64 56 61
0.114147 -0.130688 -0.290781 51 47 60
0.115325 -0.130711 -0.291201 48 40 53
0.116503 -0.130733 -0.291621 32 28 34
0.11768 -0.130756 -0.29204 28 25 29
0.118858 -0.130778 -0.29246 28 26 27
0.120036 -0.130801 -0.29288 27 25 25
0.121214 -0.130823 -0.2933 21 18 15
0.122391 -0.130845 -0.29372 17 18 15
0.123569 -0.130868 -0.29414 21 19 20
0.124747 -0.13089 -0.294559 33 29 30
0.125925 -0.130913 -0.294979 46 39 40
0.12721 -0.131457 -0.29649 53 47 40
0.128392 -0.13148 -0.296912 88 74 70
0.129574 -0.131502 -0.297333 147 138 133
-0.0109767 -0.126929 -0.240894 122 171 205
-0.00982097 -0.126951 -0.241306 67 99 156
-0.00866527 -0.126973 -0.241718 52 77 154
-0.00791406 -0.127512 -0.243038 57 79 159
-0.00675394 -0.127534 -0.243452 50 71 155
-0.0059895 -0.128074 -0.244777 56 82 163
-0.00443371 -0.127579 -0.244279 50 85 160
-0.00288675 -0.127083 -0.243777 52 85 158
-0.00134859 -0.126588 -0.243273 53 86 159
-0.000197301 -0.12661 -0.243683 65 99 170
0.000953992 -0.126632 -0.244093 50 87 157
0.0196777 -0.126464 -0.249715 62 70 90
0.021383 -0.127546 -0.252428 57 69 84
0.0225387 -0.127568 -0.25284 62 75 88
0.0442911 -0.128508 -0.261647 90 92 111
0.0454512 -0.12853 -0.262061 78 80 106
0.0466114 -0.128552 -0.262474 102 102 128
0.0477715 -0.128574 -0.262888 119 120 135
0.0487432 -0.129117 -0.264287 86 76 122
0.0499078 -0.12914 -0.264702 91 87 135
0.0510723 -0.129162 -0.265117 110 102 152
0.0522368 -0.129184 -0.265532 142 142 168
0.0534013 -0.129206 -0.265948 146 146 163
0.0545659 -0.129228 -0.266363 155 149 160
0.0557304 -0.129251 -0.266778 157 152 161
0.0568949 -0.129273 -0.267193 157 153 159
0.0580594 -0.129295 -0.267608 161 149 154
0.059224 -0.129317 -0.268023 157 148 155
0.0603885 -0.129339 -0.268438 135 131 144
0.061553 -0.129362 -0.268853 129 125 138
0.0627175 -0.129384 -0.269268 126 126 138
0.0638821 -0.129406 -0.269684 129 127 133
0.0650466 -0.129428 -0.270099 141 135 141
0.0662111 -0.12945 -0.270514 145 141 147
0.0673756 -0.129473 -0.270929 141 137 143
0.0685402 -0.129495 -0.271344 132 132 142
0.0697047 -0.129517 -0.271759 104 101 121
0.0708692 -0.129539 -0.272174 91 85 119
0.0720338 -0.129562 -0.272589 66 67 95
0.0731983 -0.129584 -0.273004 76 75 90
0.0743628 -0.129606 -0.273419 50 52 71
0.0754404 -0.130151 -0.274857 38 37 65
0.0766094 -0.130173 -0.275273 58 43 67
0.0777783 -0.130196 -0.27569 66 54 77
0.0789472 -0.130218 -0.276107 86 78 89
0.0801162 -0.13024 -0.276523 113 111 111
0.0812851 -0.130263 -0.27694 109 107 108
0.0824541 -0.130285 -0.277357 114 111 115
0.083623 -0.130307 -0.277773 112 110 111
0.0847919 -0.13033 -0.27819 108 104 105
0.0859609 -0.130352 -0.278607 78 74 80
0.0871298 -0.130374 -0.279023 101 94 89
0.0882604 -0.13092 -0.280479 91 72 69
0.0894337 -0.130943 -0.280898 102 95 96
0.0906071 -0.130965 -0.281316 107 111 111
0.0917804 -0.130987 -0.281734 104 105 113
0.0929538 -0.13101 -0.282152 88 90 109
0.0941271 -0.131032 -0.282571 89 82 103
0.0953005 -0.131055 -0.282989 94 83 104
0.0964738 -0.131077 -0.283407 98 92 105
0.0976472 -0.131099 -0.283825 109 109 110
0.0988205 -0.131122 -0.284244 83 83 93
0.0999938 -0.131144 -0.284662 56 61 84
0.101167 -0.131166 -0.28508 60 69 87
0.102341 -0.131189 -0.285498 57 61 80
0.103514 -0.131211 -0.285917 55 60 76
0.104687 -0.131234 -0.286335 55 59 73
0.105861 -0.131256 -0.286753 65 56 57
0.107066 -0.131804 -0.288236 40 38 38
0.108244 -0.131826 -0.288656 38 38 38
0.109422 -0.131849 -0.289075 50 48 49
0.110599 -0.131871 -0.289495 49 47 47
0.111777 -0.131893 -0.289915 61 54 55
0.112955 -0.131916 -0.290335 64 56 61
0.114133 -0.131938 -0.290755 51 47 60
0.11531 -0.131961 -0.291175 48 40 53
0.116488 -0.131983 -0.291594 32 28 34
0.117666 -0.132006 -0.292014 28 25 29
0.118844 -0.132028 -0.292434 28 26 27
0.120021 -0.132051 -0.292854 27 25 25
0.121199 -0.132073 -0.293274 21 18 15
0.122377 -0.132096 -0.293693 17 18 15
0.123555 -0.132118 -0.294113 21 19 20
0.124733 -0.132141 -0.294533 33 29 30
0.126013 -0.13269 -0.296043 46 39 40
0.127195 -0.132712 -0.296464 53 47 40
0.128377 -0.132735 -0.296885 88 74 70
0.12956 -0.132757 -0.297307 147 138 133
-0.0109909 -0.128156 -0.240868 122 171 205
-0.00983517 -0.128178 -0.24128 67 99 156
-0.00867947 -0.1282 -0.241692 56 81 158
-0.00792831 -0.128744 -0.243012 57 79 159
-0.00676819 -0.128766 -0.243426 50 71 155
-0.00560808 -0.128788 -0.24384 50 84 162
-0.00405665 -0.128288 -0.24334 50 85 160
-0.00136274 -0.12781 -0.243247 53 86 159
0.000166636 -0.12731 -0.242739 65 99 170
0.00131352 -0.127332 -0.243148 50 87 157
0.0442769 -0.129739 -0.261621 90 92 111
0.045437 -0.129761 -0.262035 78 80 106
0.0465971 -0.129784 -0.262448 102 102 128
0.0477572 -0.129806 -0.262862 119 120 135
0.0487289 -0.130354 -0.264261 86 76 122
0.0498934 -0.130376 -0.264676 91 87 135
0.051058 -0.130398 -0.265091 110 102 152
0.0522225 -0.13042 -0.265506 142 142 168
0.053387 -0.130442 -0.265922 146 146 163
0.0545516 -0.130465 -0.266337 155 149 160
0.0557161 -0.130487 -0.266752 157 152 161
0.0568806 -0.130509 -0.267167 157 153 159
0.0580451 -0.130531 -0.267582 161 149 154
0.0592097 -0.130553 -0.267997 157 148 155
0.0603742 -0.130576 -0.268412 135 131 144
0.0615387 -0.130598 -0.268827 129 125 138
0.0627032 -0.13062 -0.269242 126 126 138
0.0638678 -0.130642 -0.269658 129 127 133
0.0650323 -0.130664 -0.270073 141 135 141
0.0661968 -0.130687 -0.270488 145 141 147
0.0673613 -0.130709 -0.270903 141 137 143
0.0685259 -0.130731 -0.271318 132 132 142
0.0696904 -0.130753 -0.271733 104 101 121
0.0708549 -0.130775 -0.272148 91 85 119
0.0720194 -0.130798 -0.272563 66 67 95
0.073184 -0.13082 -0.272978 76 75 90
0.0743485 -0.130842 -0.273393 50 52 71
0.075513 -0.130864 -0.273809 38 37 65
0.076595 -0.131414 -0.275247 58 43 67
0.0777639 -0.131437 -0.275664 66 54 77
0.0859465 -0.131593 -0.278581 78 74 80
0.0882459 -0.132166 -0.280453 91 72 69
0.0905926 -0.132211 -0.28129 107 111 111
0.091766 -0.132233 -0.281708 104 105 113
0.0929393 -0.132255 -0.282126 88 90 109
0.0941127 -0.132278 -0.282544 89 82 103
0.095286 -0.1323 -0.282963 94 83 104
0.0964594 -0.132322 -0.283381 98 92 105
0.0976327 -0.132345 -0.283799 109 109 110
0.0988061 -0.132367 -0.284217 83 83 93
0.0999794 -0.13239 -0.284636 56 61 84
0.101153 -0.132412 -0.285054 60 69 87
0.102326 -0.132434 -0.285472 57 61 80
0.103499 -0.132457 -0.28589 55 60 76
0.104673 -0.132479 -0.286309 55 59 73
0.105846 -0.132501 -0.286727 65 56 57
0.107052 -0.133054 -0.288209 40 38 38
0.108229 -0.133076 -0.288629 38 38 38
0.109407 -0.133099 -0.289049 50 48 49
0.110585 -0.133121 -0.289469 49 47 47
0.111763 -0.133144 -0.289889 61 54 55
0.11294 -0.133166 -0.290309 64 56 61
0.114118 -0.133189 -0.290728 51 47 60
0.115296 -0.133211 -0.291148 48 40 53
0.116474 -0.133234 -0.291568 32 28 34
0.117651 -0.133256 -0.291988 28 25 29
0.118829 -0.133278 -0.292408 28 26 27
0.120007 -0.133301 -0.292828 27 25 25
0.121185 -0.133323 -0.293247 21 18 15
0.122452 -0.133877 -0.294752 17 18 15
0.123634 -0.133899 -0.295173 21 19 20
0.124816 -0.133922 -0.295595 33 29 30
0.125999 -0.133944 -0.296016 46 39 40
0.127181 -0.133967 -0.296438 53 47 40
0.128363 -0.13399 -0.296859 88 74 70
