ply
format ascii 1.0
comment Created by Open3D
element vertex 1133
property double x
property double y
property double z
property uchar red
property uchar green
property uchar blue
end_header
0.0130601 -0.067915 0.100485 204 204 204
0.0142291 -0.067498 0.100463 204 204 204
0.0153981 -0.067082 0.10044 204 204 204
0.016567 -0.066665 0.100418 204 204 204
0.0177359 -0.066248 0.100396 204 204 204
0.0189048 -0.065832 0.100373 204 204 204
0.0201692 -0.066441 0.100462 204 204 204
0.0213337 -0.066026 0.10044 204 204 204
0.0224982 -0.065611 0.100417 204 204 204
0.0236628 -0.065196 0.100395 204 204 204
0.0248273 -0.06478 0.100373 204 204 204
0.0259918 -0.064365 0.100351 204 204 204
0.0270874 -0.062915 0.100217 204 204 204
0.0282563 -0.062498 0.100195 204 204 204
0.0294854 -0.06312 0.100284 204 204 204
0.0306498 -0.062705 0.100262 204 204 204
0.0317631 -0.061248 0.100128 204 204 204
0.032932 -0.060831 0.100106 204 204 204
0.0341011 -0.060415 0.100084 204 204 204
0.03527 -0.059998 0.100061 204 204 204
0.0364052 -0.058533 0.0999273 204 204 204
0.0375786 -0.058115 0.0999049 204 204 204
0.0387271 -0.056646 0.0997705 204 204 204
0.0398845 -0.055173 0.0996359 204 204 204
0.0410508 -0.053698 0.0995011 204 204 204
0.0422259 -0.052219 0.0993662 204 204 204
0.0434026 -0.049679 0.0991187 204 204 204
0.0445996 -0.048193 0.0989833 204 204 204
0.0458055 -0.046703 0.0988478 204 204 204
0.0470203 -0.04521 0.0987121 204 204 204
0.0482433 -0.043714 0.0985763 204 204 204
-0.0259285 -0.037318 0.0950649 204 204 204
-0.0243465 -0.037814 0.095152 204 204 204
-0.0175083 -0.049155 0.0965452 204 204 204
-0.00918865 -0.063148 0.0982618 204 204 204
-0.00777435 -0.063704 0.098352 204 204 204
-0.00655685 -0.06327 0.0983288 204 204 204
-0.00497205 -0.064825 0.098533 204 204 204
-0.00358425 -0.06539 0.0986237 204 204 204
-0.00220515 -0.065958 0.0987146 204 204 204
-0.00083495 -0.06653 0.0988057 204 204 204
0.00052645 -0.067104 0.0988969 204 204 204
0.00187905 -0.067682 0.0989883 204 204 204
0.00322275 -0.068263 0.0990799 204 204 204
0.00440495 -0.067841 0.0990573 204 204 204
0.00573545 -0.068427 0.0991492 204 204 204
0.00691325 -0.068007 0.0991267 204 204 204
0.00823055 -0.068598 0.0992188 204 204 204
0.00940385 -0.068179 0.0991964 204 204 204
0.0105772 -0.067761 0.099174 204 204 204
0.0117506 -0.067343 0.0991517 204 204 204
0.0130458 -0.067941 0.0992442 204 204 204
0.0142148 -0.067524 0.0992219 204 204 204
0.0153836 -0.067108 0.0991996 204 204 204
0.0166612 -0.067712 0.0992924 204 204 204
0.0177215 -0.066274 0.099155 204 204 204
0.0188904 -0.065858 0.0991327 204 204 204
0.0200594 -0.065441 0.0991104 204 204 204
0.0213193 -0.066052 0.0992036 204 204 204
0.0224838 -0.065637 0.0991814 204 204 204
0.0236484 -0.065222 0.0991592 204 204 204
0.0247352 -0.063774 0.0990212 204 204 204
0.0259041 -0.063358 0.0989989 204 204 204
0.027142 -0.063976 0.0990925 204 204 204
0.0282419 -0.062524 0.0989544 204 204 204
0.029471 -0.063146 0.0990481 204 204 204
0.0305798 -0.061691 0.0989098 204 204 204
0.0317487 -0.061274 0.0988875 204 204 204
0.0329178 -0.060858 0.0988652 204 204 204
0.0340867 -0.060441 0.0988429 204 204 204
0.0352175 -0.058978 0.0987041 204 204 204
0.0363908 -0.05856 0.0986817 204 204 204
0.0375643 -0.058141 0.0986594 204 204 204
0.0387127 -0.056672 0.0985203 204 204 204
0.03987 -0.0552 0.098381 204 204 204
0.0410201 -0.05267 0.0981246 204 204 204
0.0421995 -0.05119 0.097985 204 204 204
0.0433877 -0.049706 0.0978451 204 204 204
0.0445849 -0.04822 0.0977051 204 204 204
0.0457906 -0.04673 0.0975649 204 204 204
0.0470053 -0.045237 0.0974245 204 204 204
0.0482283 -0.043741 0.097284 204 204 204
-0.0277726 -0.03588 0.0934185 204 204 204
-0.0261774 -0.036371 0.09351 204 204 204
-0.0248187 -0.035887 0.0934841 204 204 204
-0.0230133 -0.037363 0.0936934 204 204 204
-0.00940055 -0.062186 0.0968466 204 204 204
-0.00798175 -0.06274 0.0969415 204 204 204
-0.00657175 -0.063297 0.0970364 204 204 204
-0.00517065 -0.063857 0.0971316 204 204 204
-0.00359905 -0.065417 0.0973454 204 204 204
-0.00221995 -0.065985 0.097441 204 204 204
-0.00084965 -0.066556 0.0975368 204 204 204
0.00051175 -0.067131 0.0976327 204 204 204
0.00186445 -0.067708 0.0977288 204 204 204
0.00305105 -0.067285 0.0977061 204 204 204
0.00439045 -0.067868 0.0978025 204 204 204
0.00572095 -0.068453 0.097899 204 204 204
0.00689875 -0.068033 0.0978765 204 204 204
0.00807655 -0.067614 0.0978541 204 204 204
0.00938945 -0.068206 0.0979509 204 204 204
0.0105628 -0.067787 0.0979285 204 204 204
0.0117361 -0.067369 0.0979062 204 204 204
0.0130314 -0.067967 0.0980033 204 204 204
0.0142003 -0.06755 0.0979811 204 204 204
0.0153692 -0.067134 0.0979588 204 204 204
0.0165382 -0.066717 0.0979365 204 204 204
0.0177071 -0.0663 0.0979142 204 204 204
0.0188762 -0.065884 0.0978919 204 204 204
0.0200451 -0.065467 0.0978696 204 204 204
0.021214 -0.06505 0.0978473 204 204 204
0.0223829 -0.064634 0.097825 204 204 204
0.0235518 -0.064217 0.0978027 204 204 204
0.0247207 -0.0638 0.0977804 204 204 204
0.0258897 -0.063384 0.0977581 204 204 204
0.0270586 -0.062967 0.0977358 204 204 204
0.0282275 -0.06255 0.0977135 204 204 204
0.0293966 -0.062134 0.0976912 204 204 204
0.0305655 -0.061717 0.0976689 204 204 204
0.0317345 -0.0613 0.0976467 204 204 204
0.0329034 -0.060884 0.0976244 204 204 204
0.0340298 -0.059422 0.097481 204 204 204
0.035203 -0.059004 0.0974586 204 204 204
0.0363764 -0.058586 0.0974362 204 204 204
0.0375205 -0.057118 0.0972925 204 204 204
0.0386982 -0.056698 0.0972701 204 204 204
0.0398555 -0.055226 0.0971261 204 204 204
0.0410055 -0.052696 0.0968604 204 204 204
0.0421849 -0.051216 0.096716 204 204 204
0.0433731 -0.049733 0.0965715 204 204 204
0.04457 -0.048246 0.0964268 204 204 204
0.0457758 -0.046757 0.0962819 204 204 204
0.0469903 -0.045264 0.0961368 204 204 204
0.0482033 -0.044832 0.0961137 204 204 204
-0.0248354 -0.035917 0.0920419 204 204 204
-0.0108434 -0.061662 0.0954456 204 204 204
-0.00941565 -0.062213 0.0955449 204 204 204
-0.00799675 -0.062767 0.0956444 204 204 204
-0.00658675 -0.063324 0.0957441 204 204 204
-0.00500175 -0.064879 0.095967 204 204 204
-0.00361385 -0.065444 0.0960671 204 204 204
-0.00223465 -0.066012 0.0961674 204 204 204
-0.00086435 -0.066583 0.0962678 204 204 204
0.00049715 -0.067157 0.0963684 204 204 204
0.00184985 -0.067735 0.0964692 204 204 204
0.00303645 -0.067312 0.0964466 204 204 204
0.00437585 -0.067894 0.0965476 204 204 204
0.00570655 -0.06848 0.0966488 204 204 204
0.00688425 -0.06806 0.0966263 204 204 204
0.00806205 -0.06764 0.0966039 204 204 204
0.00937505 -0.068232 0.0967054 204 204 204
0.0105484 -0.067813 0.096683 204 204 204
0.0117217 -0.067395 0.0966607 204 204 204
0.013017 -0.067993 0.0967625 204 204 204
0.0141859 -0.067577 0.0967402 204 204 204
0.0153549 -0.06716 0.0967179 204 204 204
0.0165238 -0.066743 0.0966956 204 204 204
0.0176929 -0.066326 0.0966733 204 204 204
0.0188618 -0.06591 0.0966511 204 204 204
0.0200307 -0.065493 0.0966288 204 204 204
0.0211996 -0.065076 0.0966065 204 204 204
0.0223685 -0.06466 0.0965842 204 204 204
0.0235374 -0.064243 0.0965619 204 204 204
0.0247064 -0.063826 0.0965396 204 204 204
0.0258753 -0.06341 0.0965173 204 204 204
0.0270444 -0.062993 0.096495 204 204 204
0.0282133 -0.062576 0.0964727 204 204 204
0.0293822 -0.06216 0.0964504 204 204 204
0.0305511 -0.061743 0.0964281 204 204 204
0.0316686 -0.060285 0.0962802 204 204 204
0.032842 -0.059867 0.0962579 204 204 204
0.0340153 -0.059449 0.0962355 204 204 204
0.0351886 -0.05903 0.0962131 204 204 204
0.036362 -0.058612 0.0961907 204 204 204
0.037506 -0.057144 0.0960423 204 204 204
0.0386589 -0.055674 0.0958938 204 204 204
0.0398205 -0.0542 0.0957451 204 204 204
0.040991 -0.052723 0.0955962 204 204 204
0.0421701 -0.051243 0.0954471 204 204 204
0.0433582 -0.04976 0.0952979 204 204 204
0.0445552 -0.048273 0.0951485 204 204 204
0.045761 -0.046784 0.0949989 204 204 204
0.0469753 -0.045291 0.0948492 204 204 204
0.0481993 -0.043795 0.0946993 204 204 204
-0.0110599 -0.060702 0.0940118 204 204 204
-0.00943075 -0.06224 0.0942432 204 204 204
-0.00801175 -0.062794 0.0943474 204 204 204
-0.00660175 -0.063351 0.0944518 204 204 204
-0.00501665 -0.064905 0.0946841 204 204 204
-0.00362865 -0.06547 0.0947889 204 204 204
-0.00224945 -0.066038 0.0948938 204 204 204
-0.00087905 -0.06661 0.0949989 204 204 204
0.00048255 -0.067184 0.0951042 204 204 204
0.00183525 -0.067761 0.0952097 204 204 204
0.00302185 -0.067338 0.095187 204 204 204
0.00436135 -0.067921 0.0952927 204 204 204
0.00569205 -0.068506 0.0953986 204 204 204
0.00686985 -0.068086 0.0953762 204 204 204
0.00804755 -0.067666 0.0953537 204 204 204
0.00936065 -0.068258 0.0954599 204 204 204
0.0105339 -0.06784 0.0954375 204 204 204
0.0117073 -0.067421 0.0954151 204 204 204
0.0130026 -0.068019 0.0955217 204 204 204
0.0141717 -0.067603 0.0954994 204 204 204
0.0153406 -0.067186 0.0954771 204 204 204
0.0165096 -0.066769 0.0954548 204 204 204
0.0176785 -0.066353 0.0954325 204 204 204
0.0188473 -0.065936 0.0954102 204 204 204
0.0199207 -0.064494 0.0952585 204 204 204
0.0211852 -0.065103 0.0953656 204 204 204
0.0223541 -0.064686 0.0953434 204 204 204
0.0235231 -0.064269 0.0953211 204 204 204
0.0246921 -0.063853 0.0952988 204 204 204
0.0257874 -0.062402 0.0951466 204 204 204
0.0269609 -0.061984 0.0951242 204 204 204
0.0281342 -0.061566 0.0951019 204 204 204
0.0293075 -0.061148 0.0950795 204 204 204
0.0304808 -0.060729 0.0950571 204 204 204
0.0316543 -0.060311 0.0950347 204 204 204
0.0328276 -0.059893 0.0950124 204 204 204
0.0340009 -0.059475 0.09499 204 204 204
0.0351742 -0.059056 0.0949676 204 204 204
0.0363137 -0.057591 0.0948146 204 204 204
0.0374916 -0.057171 0.0947922 204 204 204
0.0386444 -0.0557 0.0946389 204 204 204
0.0398058 -0.054226 0.0944855 204 204 204
0.0409762 -0.05275 0.0943319 204 204 204
0.0421672 -0.052325 0.0943092 204 204 204
0.0433509 -0.050844 0.0941554 204 204 204
0.0445405 -0.0483 0.0938702 204 204 204
0.0457461 -0.046811 0.093716 204 204 204
0.0469604 -0.045318 0.0935615 204 204 204
0.0494164 -0.042324 0.0932522 204 204 204
-0.0125161 -0.060183 0.0925923 204 204 204
-0.0110751 -0.060729 0.0927007 204 204 204
-0.00944575 -0.062268 0.0929415 204 204 204
-0.00802685 -0.062821 0.0930504 204 204 204
-0.00642835 -0.064371 0.0932918 204 204 204
-0.00503145 -0.064932 0.0934011 204 204 204
-0.00364345 -0.065497 0.0935106 204 204 204
-0.00226415 -0.066065 0.0936202 204 204 204
-0.00089375 -0.066636 0.09373 204 204 204
0.00046785 -0.06721 0.09384 204 204 204
0.00182065 -0.067788 0.0939501 204 204 204
0.00300725 -0.067365 0.0939275 204 204 204
0.00434685 -0.067947 0.0940379 204 204 204
0.00552905 -0.067526 0.0940153 204 204 204
0.00685535 -0.068112 0.094126 204 204 204
0.00803305 -0.067693 0.0941035 204 204 204
0.00921085 -0.067273 0.094081 204 204 204
0.0103886 -0.066853 0.0940586 204 204 204
0.0116928 -0.067448 0.0941696 204 204 204
0.0140396 -0.066611 0.0941249 204 204 204
0.0152129 -0.066193 0.0941025 204 204 204
0.0163862 -0.065775 0.0940801 204 204 204
0.0175597 -0.065356 0.0940578 204 204 204
0.018733 -0.064938 0.0940354 204 204 204
0.0199063 -0.06452 0.094013 204 204 204
0.0210796 -0.064102 0.0939906 204 204 204
0.0222531 -0.063683 0.0939683 204 204 204
0.0234264 -0.063265 0.0939459 204 204 204
0.0245997 -0.062847 0.0939235 204 204 204
0.025773 -0.062429 0.0939011 204 204 204
0.0269465 -0.06201 0.0938787 204 204 204
0.0281197 -0.061592 0.0938564 204 204 204
0.0292931 -0.061174 0.093834 204 204 204
0.0304664 -0.060756 0.0938116 204 204 204
0.0315883 -0.059296 0.0936543 204 204 204
0.0328131 -0.059919 0.0937669 204 204 204
0.0339439 -0.058457 0.0936094 204 204 204
0.0351215 -0.058037 0.0935869 204 204 204
0.0362994 -0.057617 0.0935644 204 204 204
0.0374476 -0.056148 0.0934066 204 204 204
0.0386048 -0.054676 0.0932486 204 204 204
0.0397913 -0.054253 0.093226 204 204 204
0.0409616 -0.052776 0.0930677 204 204 204
0.0421526 -0.052352 0.093045 204 204 204
0.0433362 -0.05087 0.0928865 204 204 204
0.0445286 -0.049386 0.0927278 204 204 204
0.0457298 -0.047898 0.092569 204 204 204
0.0469454 -0.045345 0.0922739 204 204 204
0.0481794 -0.042786 0.0919785 204 204 204
0.0494154 -0.041286 0.091819 204 204 204
-0.0123253 -0.061197 0.0914132 204 204 204
-0.0108886 -0.061745 0.0915265 204 204 204
-0.00946085 -0.062295 0.0916398 204 204 204
-0.00784905 -0.06384 0.0918904 204 204 204
-0.00644335 -0.064398 0.0920042 204 204 204
-0.00504635 -0.064959 0.0921181 204 204 204
-0.00365825 -0.065524 0.0922323 204 204 204
-0.00227885 -0.066092 0.0923466 204 204 204
-0.00090845 -0.066663 0.0924611 204 204 204
0.00045325 -0.067237 0.0925757 204 204 204
0.00164425 -0.066813 0.092553 204 204 204
0.00299265 -0.067391 0.0926679 204 204 204
0.00433235 -0.067973 0.092783 204 204 204
0.00551445 -0.067552 0.0927605 204 204 204
0.00684085 -0.068139 0.0928758 204 204 204
0.00801865 -0.067719 0.0928533 204 204 204
0.00919635 -0.067299 0.0928309 204 204 204
0.0103741 -0.066879 0.0928084 204 204 204
0.0115519 -0.066459 0.0927859 204 204 204
0.0127297 -0.06604 0.0927635 204 204 204
0.0140251 -0.066637 0.0928794 204 204 204
0.0151985 -0.066219 0.092857 204 204 204
0.0163719 -0.065801 0.0928346 204 204 204
0.0175453 -0.065383 0.0928123 204 204 204
0.0187185 -0.064964 0.0927899 204 204 204
0.0198919 -0.064546 0.0927675 204 204 204
0.0210653 -0.064128 0.0927451 204 204 204
0.0222386 -0.06371 0.0927227 204 204 204
0.0234119 -0.063291 0.0927004 204 204 204
0.0245852 -0.062873 0.092678 204 204 204
0.0257587 -0.062455 0.0926556 204 204 204
0.026932 -0.062037 0.0926332 204 204 204
0.0280406 -0.060582 0.0924715 204 204 204
0.0292182 -0.060162 0.092449 204 204 204
0.0303961 -0.059742 0.0924266 204 204 204
0.0315738 -0.059322 0.0924041 204 204 204
0.0327515 -0.058903 0.0923816 204 204 204
0.0339294 -0.058483 0.0923592 204 204 204
0.035107 -0.058063 0.0923367 204 204 204
0.0362509 -0.056596 0.0921743 204 204 204
0.0374331 -0.056174 0.0921517 204 204 204
0.0385901 -0.054702 0.091989 204 204 204
0.0397767 -0.054279 0.0919664 204 204 204
0.040947 -0.052803 0.0918035 204 204 204
0.0421381 -0.052378 0.0917808 204 204 204
0.0433291 -0.051954 0.091758 204 204 204
0.0445169 -0.050471 0.0915948 204 204 204
0.0457151 -0.047925 0.0912907 204 204 204
0.0469363 -0.044311 0.0908455 204 204 204
0.0481644 -0.042814 0.0906815 204 204 204
0.0494154 -0.040249 0.0903764 204 204 204
-0.0109038 -0.061772 0.0902201 204 204 204
-0.00927875 -0.063312 0.0904797 204 204 204
-0.00786405 -0.063867 0.090598 204 204 204
-0.00645825 -0.064425 0.0907165 204 204 204
-0.00506115 -0.064986 0.0908352 204 204 204
-0.00367305 -0.065551 0.090954 204 204 204
-0.00229365 -0.066119 0.091073 204 204 204
-0.00092305 -0.06669 0.0911922 204 204 204
0.00043865 -0.067264 0.0913115 204 204 204
0.00162965 -0.066839 0.0912888 204 204 204
0.00297815 -0.067418 0.0914084 204 204 204
0.00416465 -0.066995 0.0913857 204 204 204
0.00549995 -0.067578 0.0915056 204 204 204
0.00668215 -0.067157 0.091483 204 204 204
0.00800415 -0.067745 0.0916031 204 204 204
0.00918195 -0.067325 0.0915807 204 204 204
0.0103597 -0.066906 0.0915582 204 204 204
0.0115374 -0.066486 0.0915357 204 204 204
0.0127152 -0.066066 0.0915133 204 204 204
0.0140107 -0.066663 0.0916339 204 204 204
0.015184 -0.066245 0.0916115 204 204 204
0.0163575 -0.065827 0.0915891 204 204 204
0.0175308 -0.065409 0.0915667 204 204 204
0.018604 -0.063967 0.091401 204 204 204
0.0197817 -0.063547 0.0913785 204 204 204
0.0209596 -0.063127 0.0913561 204 204 204
0.0221373 -0.062707 0.0913336 204 204 204
0.023315 -0.062287 0.0913111 204 204 204
0.0244928 -0.061868 0.0912887 204 204 204
0.0256705 -0.061448 0.0912662 204 204 204
0.0268482 -0.061028 0.0912437 204 204 204
0.0280261 -0.060608 0.0912213 204 204 204
0.0292038 -0.060188 0.0911988 204 204 204
0.0303816 -0.059769 0.0911764 204 204 204
0.0315593 -0.059349 0.0911539 204 204 204
0.0327371 -0.058929 0.0911314 204 204 204
0.0339149 -0.058509 0.091109 204 204 204
0.0350543 -0.057044 0.0909419 204 204 204
0.0362363 -0.056622 0.0909194 204 204 204
0.0373889 -0.055152 0.0907521 204 204 204
0.0385755 -0.054729 0.0907295 204 204 204
0.0397414 -0.053254 0.090562 204 204 204
0.0409323 -0.052829 0.0905392 204 204 204
0.0421233 -0.052405 0.0905165 204 204 204
0.0433143 -0.05198 0.0904938 204 204 204
0.0445023 -0.050497 0.0903259 204 204 204
0.0457003 -0.047952 0.0900124 204 204 204
0.0469213 -0.044338 0.0895532 204 204 204
0.0481494 -0.042841 0.0893845 204 204 204
0.0494144 -0.039212 0.0889244 204 204 204
-0.0107173 -0.062787 0.0890598 204 204 204
-0.00929375 -0.063339 0.0891827 204 204 204
-0.00787905 -0.063894 0.0893057 204 204 204
-0.00647315 -0.064452 0.0894289 204 204 204
-0.00489205 -0.066007 0.0896987 204 204 204
-0.00368775 -0.065578 0.0896757 204 204 204
-0.00230835 -0.066146 0.0897994 204 204 204
-0.00093775 -0.066716 0.0899232 204 204 204
0.00042405 -0.06729 0.0900473 204 204 204
0.00161495 -0.066866 0.0900246 204 204 204
0.00296355 -0.067444 0.0901488 204 204 204
0.00415015 -0.067021 0.0901262 204 204 204
0.00533675 -0.066598 0.0901036 204 204 204
0.00666765 -0.067183 0.0902282 204 204 204
0.00784975 -0.066762 0.0902056 204 204 204
0.00916745 -0.067352 0.0903305 204 204 204
0.0103452 -0.066932 0.090308 204 204 204
0.0115229 -0.066512 0.0902856 204 204 204
0.0127008 -0.066092 0.0902631 204 204 204
0.0138784 -0.065672 0.0902406 204 204 204
0.0151696 -0.066271 0.090366 204 204 204
0.0163431 -0.065853 0.0903436 204 204 204
0.0175163 -0.065435 0.0903212 204 204 204
0.0185896 -0.063993 0.0901508 204 204 204
0.0197672 -0.063573 0.0901283 204 204 204
0.020945 -0.063153 0.0901059 204 204 204
0.0221228 -0.062734 0.0900834 204 204 204
0.0233005 -0.062314 0.0900609 204 204 204
0.0244784 -0.061894 0.0900385 204 204 204
0.025656 -0.061474 0.090016 204 204 204
0.0268338 -0.061054 0.0899936 204 204 204
0.0280116 -0.060635 0.0899711 204 204 204
0.0291893 -0.060215 0.0899486 204 204 204
0.0303672 -0.059795 0.0899262 204 204 204
0.0314932 -0.058334 0.0897547 204 204 204
0.0326753 -0.057913 0.0897322 204 204 204
0.0338575 -0.057491 0.0897096 204 204 204
0.0350396 -0.05707 0.0896871 204 204 204
0.0362218 -0.056649 0.0896645 204 204 204
0.0373744 -0.055178 0.0894926 204 204 204
0.038561 -0.054755 0.0894699 204 204 204
0.0397475 -0.054332 0.0894473 204 204 204
0.0409177 -0.052856 0.089275 204 204 204
0.0421087 -0.052431 0.0892523 204 204 204
0.0432998 -0.052007 0.0892296 204 204 204
0.0444875 -0.050524 0.0890569 204 204 204
0.0456854 -0.047979 0.0887341 204 204 204
0.0469063 -0.044365 0.0882609 204 204 204
0.0481343 -0.042868 0.0880875 204 204 204
0.0493854 -0.040304 0.0877636 204 204 204
-0.0119585 -0.063251 0.0877815 204 204 204
-0.0105305 -0.063802 0.087909 204 204 204
-0.00911145 -0.064355 0.0880366 204 204 204
-0.00770105 -0.064912 0.0881644 204 204 204
-0.00629955 -0.065471 0.0882923 204 204 204
-0.00490685 -0.066034 0.0884204 204 204 204
-0.00352295 -0.0666 0.0885487 204 204 204
-0.00232315 -0.066172 0.0885258 204 204 204
-0.00095245 -0.066743 0.0886543 204 204 204
0.00040935 -0.067317 0.088783 204 204 204
0.00160035 -0.066892 0.0887603 204 204 204
0.00279135 -0.066468 0.0887376 204 204 204
0.00413555 -0.067048 0.0888666 204 204 204
0.00532215 -0.066625 0.088844 204 204 204
0.00665305 -0.06721 0.0889733 204 204 204
0.00783525 -0.066788 0.0889508 204 204 204
0.00901745 -0.066367 0.0889282 204 204 204
0.0103307 -0.066958 0.0890578 204 204 204
0.0115084 -0.066538 0.0890354 204 204 204
0.0126863 -0.066118 0.0890129 204 204 204
0.013864 -0.065699 0.0889904 204 204 204
0.0150417 -0.065279 0.088968 204 204 204
0.0163286 -0.065879 0.0890981 204 204 204
0.0173972 -0.064439 0.0889231 204 204 204
0.0185751 -0.064019 0.0889006 204 204 204
0.0196569 -0.062574 0.0887253 204 204 204
0.0208391 -0.062153 0.0887028 204 204 204
0.0220214 -0.061732 0.0886802 204 204 204
0.023286 -0.06234 0.0888108 204 204 204
0.0244639 -0.06192 0.0887883 204 204 204
0.0256416 -0.0615 0.0887658 204 204 204
0.02675 -0.060046 0.08859 204 204 204
0.0279321 -0.059625 0.0885675 204 204 204
0.0291144 -0.059203 0.0885449 204 204 204
0.0302964 -0.058782 0.0885224 204 204 204
0.0314787 -0.058361 0.0884998 204 204 204
0.0326608 -0.057939 0.0884773 204 204 204
0.033843 -0.057518 0.0884548 204 204 204
0.0349867 -0.056051 0.0882783 204 204 204
0.0361732 -0.055628 0.0882556 204 204 204
0.0373598 -0.055205 0.088233 204 204 204
0.0385465 -0.054782 0.0882104 204 204 204
0.0397329 -0.054359 0.0881878 204 204 204
0.0409031 -0.052883 0.0880108 204 204 204
0.0420942 -0.052458 0.0879881 204 204 204
0.0432852 -0.052034 0.0879653 204 204 204
0.0444729 -0.050551 0.087788 204 204 204
0.0456707 -0.048005 0.0874558 204 204 204
0.0468864 -0.045454 0.0871233 204 204 204
0.0481193 -0.042896 0.0867905 204 204 204
-0.0119737 -0.063279 0.0864798 204 204 204
-0.0105457 -0.063829 0.086612 204 204 204
-0.00912635 -0.064382 0.0867443 204 204 204
-0.00771595 -0.064939 0.0868767 204 204 204
-0.00631435 -0.065498 0.0870093 204 204 204
-0.00492165 -0.066061 0.0871421 204 204 204
-0.00353765 -0.066627 0.0872751 204 204 204
-0.00233785 -0.066199 0.0872522 204 204 204
-0.00096715 -0.06677 0.0873854 204 204 204
0.00022825 -0.066344 0.0873626 204 204 204
0.00158575 -0.066919 0.0874961 204 204 204
0.00277675 -0.066494 0.0874734 204 204 204
0.00412095 -0.067074 0.0876071 204 204 204
0.00530755 -0.066651 0.0875845 204 204 204
0.00649415 -0.066228 0.0875618 204 204 204
0.00782075 -0.066815 0.0876959 204 204 204
0.00900285 -0.066393 0.0876733 204 204 204
0.0103162 -0.066984 0.0878076 204 204 204
0.011494 -0.066565 0.0877852 204 204 204
0.0126718 -0.066145 0.0877627 204 204 204
0.0138495 -0.065725 0.0877403 204 204 204
0.0150272 -0.065305 0.0877178 204 204 204
0.016205 -0.064885 0.0876953 204 204 204
0.0173828 -0.064465 0.0876729 204 204 204
0.0185606 -0.064046 0.0876504 204 204 204
0.0196424 -0.062601 0.0874704 204 204 204
0.0208246 -0.062179 0.0874479 204 204 204
0.0220067 -0.061758 0.0874253 204 204 204
0.0231889 -0.061337 0.0874028 204 204 204
0.0243712 -0.060915 0.0873802 204 204 204
0.0255532 -0.060494 0.0873577 204 204 204
0.0267355 -0.060072 0.0873352 204 204 204
0.0279176 -0.059651 0.0873126 204 204 204
0.0290998 -0.05923 0.0872901 204 204 204
0.0302819 -0.058808 0.0872675 204 204 204
0.0314642 -0.058387 0.087245 204 204 204
0.0325989 -0.056923 0.087064 204 204 204
0.0337856 -0.0565 0.0870413 204 204 204
0.034972 -0.056077 0.0870187 204 204 204
0.0361586 -0.055654 0.0869961 204 204 204
0.0373453 -0.055231 0.0869735 204 204 204
0.0385318 -0.054808 0.0869508 204 204 204
0.0397184 -0.054385 0.0869282 204 204 204
0.0408884 -0.052909 0.0867465 204 204 204
0.0420794 -0.052485 0.0867238 204 204 204
0.0432627 -0.051004 0.0865419 204 204 204
0.044455 -0.04952 0.0863598 204 204 204
0.0456559 -0.048032 0.0861776 204 204 204
0.0468711 -0.045481 0.0858357 204 204 204
0.0480944 -0.043986 0.085653 204 204 204
-0.0119887 -0.063306 0.0851782 204 204 204
-0.0105607 -0.063856 0.085315 204 204 204
-0.00914135 -0.064409 0.0854519 204 204 204
-0.00773085 -0.064966 0.0855891 204 204 204
-0.00632925 -0.065525 0.0857264 204 204 204
-0.00493645 -0.066088 0.0858638 204 204 204
-0.00355245 -0.066654 0.0860015 204 204 204
-0.00235265 -0.066226 0.0859786 204 204 204
-0.00098185 -0.066796 0.0861165 204 204 204
0.00021355 -0.06637 0.0860937 204 204 204
0.00157115 -0.066945 0.0862319 204 204 204
0.00276205 -0.066521 0.0862091 204 204 204
0.00395305 -0.066096 0.0861864 204 204 204
0.00529295 -0.066678 0.0863249 204 204 204
0.00647955 -0.066255 0.0863023 204 204 204
0.00766615 -0.065832 0.0862796 204 204 204
0.00898835 -0.06642 0.0864185 204 204 204
0.0101705 -0.065998 0.0863959 204 204 204
0.0113528 -0.065577 0.0863734 204 204 204
0.0125348 -0.065156 0.0863508 204 204 204
0.0137171 -0.064734 0.0863283 204 204 204
0.0150129 -0.065331 0.0864676 204 204 204
0.0161906 -0.064912 0.0864451 204 204 204
0.0173683 -0.064492 0.0864227 204 204 204
0.0184458 -0.063049 0.0862381 204 204 204
0.0196279 -0.062627 0.0862156 204 204 204
0.0209017 -0.063232 0.0863553 204 204 204
0.0220794 -0.062812 0.0863328 204 204 204
0.0232571 -0.062393 0.0863104 204 204 204
0.0243565 -0.060942 0.0861254 204 204 204
0.0255387 -0.06052 0.0861028 204 204 204
0.026721 -0.060099 0.0860803 204 204 204
0.0279031 -0.059678 0.0860577 204 204 204
0.0290852 -0.059256 0.0860352 204 204 204
0.0302674 -0.058835 0.0860126 204 204 204
0.0313977 -0.057373 0.0858271 204 204 204
0.0325844 -0.05695 0.0858044 204 204 204
0.0337279 -0.055483 0.0856186 204 204 204
0.0349188 -0.055058 0.0855959 204 204 204
0.0361098 -0.054634 0.0855732 204 204 204
0.0373306 -0.055258 0.0857139 204 204 204
0.0385172 -0.054835 0.0856913 204 204 204
0.0397038 -0.054412 0.0856686 204 204 204
0.0408738 -0.052936 0.0854823 204 204 204
0.0420527 -0.051456 0.0852958 204 204 204
0.0432481 -0.05103 0.085273 204 204 204
0.0444402 -0.049546 0.0850862 204 204 204
0.045641 -0.048059 0.0848993 204 204 204
0.0468508 -0.046569 0.0847122 204 204 204
0.0480694 -0.045075 0.0845249 204 204 204
0.0492823 -0.044643 0.0845018 204 204 204
-0.0122101 -0.062348 0.0837117 204 204 204
-0.0105756 -0.063883 0.0840179 204 204 204
-0.00915625 -0.064437 0.0841596 204 204 204
-0.00774575 -0.064993 0.0843014 204 204 204
-0.00634405 -0.065552 0.0844434 204 204 204
-0.00495125 -0.066115 0.0845856 204 204 204
-0.00356715 -0.06668 0.0847279 204 204 204
-0.00236735 -0.066253 0.084705 204 204 204
-0.00099655 -0.066823 0.0848476 204 204 204
0.00019885 -0.066397 0.0848248 204 204 204
0.00155645 -0.066972 0.0849676 204 204 204
0.00274745 -0.066548 0.0849449 204 204 204
0.00393845 -0.066123 0.0849222 204 204 204
0.00527835 -0.066704 0.0850654 204 204 204
0.00646495 -0.066281 0.0850427 204 204 204
0.00765155 -0.065858 0.0850201 204 204 204
0.00897385 -0.066446 0.0851636 204 204 204
0.010156 -0.066025 0.085141 204 204 204
0.0113381 -0.065603 0.0851185 204 204 204
0.0125203 -0.065182 0.085096 204 204 204
0.0137026 -0.064761 0.0850734 204 204 204
0.0148847 -0.064339 0.0850509 204 204 204
0.0160669 -0.063918 0.0850283 204 204 204
0.017249 -0.063496 0.0850058 204 204 204
0.0184313 -0.063075 0.0849832 204 204 204
0.0196133 -0.062654 0.0849607 204 204 204
0.0207956 -0.062232 0.0849381 204 204 204
0.0220649 -0.062839 0.0850827 204 204 204
0.0232426 -0.062419 0.0850602 204 204 204
0.024342 -0.060968 0.0848705 204 204 204
0.0255243 -0.060547 0.084848 204 204 204
0.0267064 -0.060125 0.0848254 204 204 204
0.0278886 -0.059704 0.0848029 204 204 204
0.0290707 -0.059283 0.0847803 204 204 204
0.0301966 -0.057822 0.0845901 204 204 204
0.0313832 -0.057399 0.0845675 204 204 204
0.0325222 -0.055934 0.0843771 204 204 204
0.0337132 -0.05551 0.0843543 204 204 204
0.0349043 -0.055085 0.0843316 204 204 204
0.0360953 -0.054661 0.0843089 204 204 204
0.0372862 -0.054236 0.0842862 204 204 204
0.0384772 -0.053811 0.0842635 204 204 204
0.0396682 -0.053387 0.0842408 204 204 204
0.0408592 -0.052962 0.0842181 204 204 204
0.0420381 -0.051483 0.0840269 204 204 204
0.0432256 -0.050001 0.0838355 204 204 204
0.0444254 -0.049573 0.0838126 204 204 204
0.0456263 -0.048086 0.083621 204 204 204
0.0468359 -0.046596 0.0834292 204 204 204
0.0480443 -0.046165 0.0834061 204 204 204
-0.0105907 -0.063911 0.0827209 204 204 204
-0.00917125 -0.064464 0.0828673 204 204 204
-0.00776065 -0.06502 0.0830138 204 204 204
-0.00635895 -0.065579 0.0831604 204 204 204
-0.00496595 -0.066142 0.0833073 204 204 204
-0.00358185 -0.066707 0.0834543 204 204 204
-0.00238205 -0.066279 0.0834314 204 204 204
-0.00101125 -0.06685 0.0835787 204 204 204
0.00018415 -0.066424 0.0835559 204 204 204
0.00154185 -0.066999 0.0837034 204 204 204
0.00273285 -0.066574 0.0836807 204 204 204
0.00392385 -0.06615 0.083658 204 204 204
0.00526385 -0.066731 0.0838058 204 204 204
0.00645035 -0.066308 0.0837832 204 204 204
0.00777715 -0.066894 0.0839313 204 204 204
0.00895935 -0.066473 0.0839087 204 204 204
0.0101415 -0.066051 0.0838862 204 204 204
0.0113236 -0.06563 0.0838636 204 204 204
0.0125058 -0.065208 0.0838411 204 204 204
0.0136881 -0.064787 0.0838185 204 204 204
0.0148701 -0.064366 0.083796 204 204 204
0.0160523 -0.063944 0.0837735 204 204 204
0.0172345 -0.063523 0.0837509 204 204 204
0.0184166 -0.063101 0.0837284 204 204 204
0.0195988 -0.06268 0.0837058 204 204 204
0.0207811 -0.062259 0.0836833 204 204 204
0.0219632 -0.061837 0.0836607 204 204 204
0.0231454 -0.061416 0.0836382 204 204 204
0.0243275 -0.060994 0.0836156 204 204 204
0.0255098 -0.060573 0.0835931 204 204 204
0.0266222 -0.059118 0.0833985 204 204 204
0.0278089 -0.058695 0.0833758 204 204 204
0.0289954 -0.058272 0.0833532 204 204 204
0.030182 -0.057849 0.0833306 204 204 204
0.0313687 -0.057426 0.083308 204 204 204
0.0325076 -0.055961 0.0831128 204 204 204
0.0336987 -0.055536 0.0830901 204 204 204
0.0348897 -0.055112 0.0830674 204 204 204
0.0360806 -0.054687 0.0830447 204 204 204
0.0372716 -0.054263 0.083022 204 204 204
0.0384626 -0.053838 0.0829993 204 204 204
0.0396536 -0.053414 0.0829765 204 204 204
0.0408446 -0.052989 0.0829538 204 204 204
0.0420233 -0.05151 0.0827579 204 204 204
0.0432109 -0.050028 0.0825619 204 204 204
0.0444107 -0.0496 0.082539 204 204 204
0.0456115 -0.048113 0.0823427 204 204 204
0.046821 -0.046623 0.0821462 204 204 204
0.0480294 -0.046192 0.0821232 204 204 204
0.0492383 -0.045761 0.0821001 204 204 204
-0.012034 -0.063388 0.0812731 204 204 204
-0.0106057 -0.063938 0.0814239 204 204 204
-0.00918625 -0.064491 0.0815749 204 204 204
-0.00777555 -0.065047 0.0817261 204 204 204
-0.00637375 -0.065606 0.0818775 204 204 204
-0.00498075 -0.066169 0.082029 204 204 204
-0.00359665 -0.066734 0.0821807 204 204 204
-0.00239685 -0.066306 0.0821578 204 204 204
-0.00102585 -0.066876 0.0823097 204 204 204
0.00016955 -0.06645 0.0822869 204 204 204
0.00136495 -0.066024 0.0822642 204 204 204
0.00643585 -0.066334 0.0825236 204 204 204
0.00776265 -0.06692 0.0826764 204 204 204
0.00894485 -0.066499 0.0826539 204 204 204
0.010127 -0.066078 0.0826313 204 204 204
0.0113091 -0.065656 0.0826088 204 204 204
0.0124914 -0.065235 0.0825862 204 204 204
0.0136734 -0.064813 0.0825637 204 204 204
0.0148557 -0.064392 0.0825411 204 204 204
0.0160378 -0.063971 0.0825186 204 204 204
0.01722 -0.063549 0.082496 204 204 204
0.0183016 -0.062105 0.0822973 204 204 204
0.0194882 -0.061682 0.0822747 204 204 204
0.0206747 -0.061259 0.0822521 204 204 204
0.0219486 -0.061864 0.0824059 204 204 204
0.0231309 -0.061442 0.0823833 204 204 204
0.024313 -0.061021 0.0823608 204 204 204
0.0254211 -0.059567 0.0821615 204 204 204
0.0266077 -0.059144 0.0821389 204 204 204
0.0277942 -0.058721 0.0821163 204 204 204
0.0289808 -0.058298 0.0820937 204 204 204
0.0301675 -0.057875 0.082071 204 204 204
0.0313021 -0.056412 0.0818713 204 204 204
0.0324931 -0.055987 0.0818486 204 204 204
0.0336841 -0.055563 0.0818259 204 204 204
0.0348362 -0.054093 0.0816258 204 204 204
0.0360317 -0.053667 0.081603 204 204 204
0.037257 -0.054289 0.0817577 204 204 204
0.038448 -0.053865 0.081735 204 204 204
0.0396389 -0.05344 0.0817123 204 204 204
0.0408133 -0.051963 0.0815118 204 204 204
0.0420087 -0.051537 0.081489 204 204 204
0.0431961 -0.050054 0.0812883 204 204 204
0.0443959 -0.049627 0.0812654 204 204 204
0.0455966 -0.04814 0.0810644 204 204 204
0.0468063 -0.04665 0.0808633 204 204 204
0.0480154 -0.046219 0.0808402 204 204 204
0.0492233 -0.045788 0.0808172 204 204 204
-0.0106207 -0.063965 0.0801269 204 204 204
-0.00920115 -0.064518 0.0802826 204 204 204
-0.00779045 -0.065074 0.0804385 204 204 204
-0.00638865 -0.065633 0.0805945 204 204 204
-0.00499555 -0.066195 0.0807507 204 204 204
-0.00361135 -0.066761 0.0809071 204 204 204
-0.00241155 -0.066333 0.0808842 204 204 204
-0.00121175 -0.065905 0.0808613 204 204 204
0.00015485 -0.066477 0.081018 204 204 204
0.00135025 -0.066051 0.0809952 204 204 204
0.00254565 -0.065625 0.0809724 204 204 204
0.00389455 -0.066203 0.0811295 204 204 204
0.00523465 -0.066784 0.0812867 204 204 204
0.00642125 -0.066361 0.0812641 204 204 204
0.00760785 -0.065938 0.0812414 204 204 204
0.00879435 -0.065515 0.0812188 204 204 204
0.00998095 -0.065092 0.0811962 204 204 204
0.0112946 -0.065683 0.0813539 204 204 204
0.0124768 -0.065261 0.0813314 204 204 204
0.0136589 -0.06484 0.0813088 204 204 204
0.0147273 -0.0634 0.0811057 204 204 204
0.0159139 -0.062977 0.081083 204 204 204
0.0171004 -0.062554 0.0810604 204 204 204
0.018287 -0.062131 0.0810378 204 204 204
0.0194737 -0.061708 0.0810151 204 204 204
0.0206602 -0.061285 0.0809925 204 204 204
0.0218468 -0.060862 0.0809699 204 204 204
0.0230334 -0.060439 0.0809473 204 204 204
0.0242199 -0.060016 0.0809246 204 204 204
0.0254065 -0.059593 0.080902 204 204 204
0.0265932 -0.059171 0.0808794 204 204 204
0.0277797 -0.058748 0.0808567 204 204 204
0.0289662 -0.058325 0.0808341 204 204 204
0.0300964 -0.056863 0.0806298 204 204 204
0.0312873 -0.056438 0.0806071 204 204 204
0.0324783 -0.056014 0.0805844 204 204 204
0.0336262 -0.054546 0.0803797 204 204 204
0.0348215 -0.05412 0.0803569 204 204 204
0.0360169 -0.053694 0.0803341 204 204 204
0.0372123 -0.053268 0.0803113 204 204 204
0.0384077 -0.052842 0.0802885 204 204 204
0.0396031 -0.052415 0.0802657 204 204 204
0.0407985 -0.051989 0.0802429 204 204 204
0.0419939 -0.051563 0.0802201 204 204 204
0.0431815 -0.050081 0.0800147 204 204 204
0.0443813 -0.049653 0.0799918 204 204 204
0.045582 -0.048167 0.0797861 204 204 204
0.0467914 -0.046677 0.0795803 204 204 204
0.0480004 -0.046246 0.0795573 204 204 204
-0.00921615 -0.064545 0.0789903 204 204 204
-0.00780535 -0.065101 0.0791508 204 204 204
-0.00640345 -0.06566 0.0793115 204 204 204
-0.00501035 -0.066222 0.0794724 204 204 204
-0.00362615 -0.066788 0.0796335 204 204 204
-0.00242635 -0.06636 0.0796106 204 204 204
-0.00122645 -0.065932 0.0795877 204 204 204
0.00014015 -0.066504 0.0797491 204 204 204
0.00133555 -0.066078 0.0797263 204 204 204
0.00268895 -0.066654 0.079888 204 204 204
0.00387995 -0.066229 0.0798652 204 204 204
0.00507095 -0.065805 0.0798425 204 204 204
0.00640665 -0.066387 0.0800045 204 204 204
0.00759325 -0.065964 0.0799819 204 204 204
0.00877985 -0.065541 0.0799593 204 204 204
0.00996645 -0.065119 0.0799366 204 204 204
0.011153 -0.064696 0.079914 204 204 204
0.0123395 -0.064273 0.0798914 204 204 204
0.0135261 -0.06385 0.0798687 204 204 204
0.0147128 -0.063427 0.0798461 204 204 204
0.0158993 -0.063004 0.0798235 204 204 204
0.0169808 -0.061559 0.0796154 204 204 204
0.0181718 -0.061135 0.0795927 204 204 204
0.0193628 -0.06071 0.07957 204 204 204
0.0205539 -0.060286 0.0795473 204 204 204
0.0217449 -0.059861 0.0795245 204 204 204
0.0229359 -0.059437 0.0795018 204 204 204
0.0241267 -0.059012 0.0794791 204 204 204
0.0253177 -0.058588 0.0794564 204 204 204
0.0265088 -0.058163 0.0794337 204 204 204
0.0276998 -0.057739 0.079411 204 204 204
0.0288907 -0.057314 0.0793883 204 204 204
0.0300817 -0.05689 0.0793655 204 204 204
0.0312727 -0.056465 0.0793428 204 204 204
0.032416 -0.054999 0.0791336 204 204 204
0.0336114 -0.054573 0.0791108 204 204 204
0.0348068 -0.054147 0.079088 204 204 204
0.0360022 -0.05372 0.0790652 204 204 204
0.0371976 -0.053294 0.0790424 204 204 204
0.0383931 -0.052868 0.0790196 204 204 204
0.0395885 -0.052442 0.0789968 204 204 204
0.0407839 -0.052016 0.078974 204 204 204
0.0419793 -0.05159 0.0789512 204 204 204
0.0431666 -0.050108 0.0787411 204 204 204
0.0443664 -0.04968 0.0787182 204 204 204
0.0455671 -0.048194 0.0785079 204 204 204
0.0467765 -0.046704 0.0782973 204 204 204
0.0479854 -0.046273 0.0782743 204 204 204
-0.0106507 -0.06402 0.0775329 204 204 204
-0.00923105 -0.064572 0.077698 204 204 204
-0.00782025 -0.065128 0.0778632 204 204 204
-0.00641835 -0.065687 0.0780286 204 204 204
-0.00502515 -0.066249 0.0781942 204 204 204
-0.00382095 -0.06582 0.0781712 204 204 204
-0.00244105 -0.066387 0.078337 204 204 204
-0.00124125 -0.065959 0.0783141 204 204 204
-4.145e-05 -0.065531 0.0782912 204 204 204
0.00132085 -0.066104 0.0784574 204 204 204
0.00251625 -0.065678 0.0784346 204 204 204
0.00386525 -0.066256 0.078601 204 204 204
0.00505625 -0.065831 0.0785783 204 204 204
0.00624725 -0.065407 0.0785556 204 204 204
0.00757865 -0.065991 0.0787223 204 204 204
0.00876525 -0.065568 0.0786997 204 204 204
0.00995185 -0.065145 0.0786771 204 204 204
0.0111385 -0.064722 0.0786544 204 204 204
0.0123249 -0.064299 0.0786318 204 204 204
0.0135116 -0.063876 0.0786092 204 204 204
0.0145842 -0.062435 0.0783966 204 204 204
0.0157752 -0.062011 0.0783739 204 204 204
0.0169662 -0.061586 0.0783512 204 204 204
0.0181572 -0.061162 0.0783284 204 204 204
0.0193482 -0.060737 0.0783057 204 204 204
0.0204473 -0.059287 0.0780926 204 204 204
0.0216427 -0.05886 0.0780698 204 204 204
0.0229211 -0.059463 0.0782376 204 204 204
0.0241121 -0.059039 0.0782149 204 204 204
0.0253032 -0.058614 0.0781922 204 204 204
0.0264942 -0.05819 0.0781695 204 204 204
0.0276851 -0.057765 0.0781467 204 204 204
0.0288761 -0.057341 0.078124 204 204 204
0.0300671 -0.056916 0.0781013 204 204 204
0.031206 -0.055452 0.0778875 204 204 204
0.0324014 -0.055025 0.0778647 204 204 204
0.0335968 -0.054599 0.0778419 204 204 204
0.0347532 -0.053129 0.0776277 204 204 204
0.035953 -0.052701 0.0776048 204 204 204
0.0371528 -0.052273 0.0775819 204 204 204
0.0383783 -0.052895 0.0777507 204 204 204
0.0395737 -0.052469 0.0777279 204 204 204
0.0407691 -0.052043 0.0777051 204 204 204
0.0419522 -0.050562 0.0774904 204 204 204
0.043152 -0.050135 0.0774675 204 204 204
0.0443518 -0.049707 0.0774446 204 204 204
0.0455523 -0.04822 0.0772296 204 204 204
0.0467617 -0.046731 0.0770144 204 204 204
0.0479803 -0.045238 0.076799 204 204 204
0.0492074 -0.043742 0.0765835 204 204 204
0.0504243 -0.043308 0.0765603 204 204 204
-0.0120941 -0.063498 0.0760663 204 204 204
-0.0106658 -0.064047 0.0762359 204 204 204
-0.00924605 -0.0646 0.0764056 204 204 204
-0.00783515 -0.065155 0.0765755 204 204 204
-0.00643315 -0.065714 0.0767456 204 204 204
-0.00503995 -0.066276 0.0769159 204 204 204
-0.00383575 -0.065847 0.0768929 204 204 204
-0.00263155 -0.065418 0.0768699 204 204 204
-0.00125595 -0.065986 0.0770405 204 204 204
-5.615e-05 -0.065558 0.0770176 204 204 204
0.00130615 -0.066131 0.0771885 204 204 204
0.00250155 -0.065705 0.0771657 204 204 204
0.00369695 -0.065279 0.0771429 204 204 204
0.00504165 -0.065858 0.0773141 204 204 204
0.00623265 -0.065433 0.0772914 204 204 204
0.00742365 -0.065009 0.0772686 204 204 204
0.00861465 -0.064584 0.0772459 204 204 204
0.00993725 -0.065171 0.0774175 204 204 204
0.0111238 -0.064749 0.0773949 204 204 204
0.0133786 -0.062886 0.0771551 204 204 204
0.0145695 -0.062462 0.0771324 204 204 204
0.0157606 -0.062037 0.0771096 204 204 204
0.0168464 -0.060592 0.0768921 204 204 204
0.0180419 -0.060165 0.0768693 204 204 204
0.0192373 -0.059739 0.0768465 204 204 204
0.0204327 -0.059313 0.0768237 204 204 204
0.0216281 -0.058887 0.0768009 204 204 204
0.0228235 -0.058461 0.0767781 204 204 204
0.0240189 -0.058035 0.0767553 204 204 204
0.0252143 -0.057609 0.0767325 204 204 204
0.0264096 -0.057183 0.0767097 204 204 204
0.027605 -0.056757 0.0766869 204 204 204
0.0288004 -0.05633 0.0766641 204 204 204
0.0299958 -0.055904 0.0766413 204 204 204
0.0311912 -0.055478 0.0766185 204 204 204
0.0323866 -0.055052 0.0765957 204 204 204
0.0335386 -0.053583 0.076377 204 204 204
0.0347384 -0.053155 0.0763541 204 204 204
0.0359382 -0.052728 0.0763312 204 204 204
0.0371382 -0.0523 0.0763083 204 204 204
0.038338 -0.051872 0.0762854 204 204 204
0.0395378 -0.051445 0.0762625 204 204 204
0.0407376 -0.051017 0.0762397 204 204 204
0.0419374 -0.050589 0.0762168 204 204 204
0.0431371 -0.050162 0.0761939 204 204 204
0.0443332 -0.048677 0.0759743 204 204 204
0.0455376 -0.048247 0.0759513 204 204 204
0.0467468 -0.046758 0.0757314 204 204 204
0.0479653 -0.045265 0.0755114 204 204 204
0.0491924 -0.043769 0.0752911 204 204 204
0.0504093 -0.043335 0.0752679 204 204 204
-0.0121093 -0.063525 0.0747646 204 204 204
-0.0104785 -0.065061 0.0751365 204 204 204
-0.00906315 -0.065615 0.075311 204 204 204
-0.00785005 -0.065182 0.0752879 204 204 204
-0.00644805 -0.065741 0.0754627 204 204 204
-0.00505475 -0.066303 0.0756376 204 204 204
-0.00385055 -0.065874 0.0756146 204 204 204
-0.00264635 -0.065444 0.0755917 204 204 204
-0.00144205 -0.065015 0.0755687 204 204 204
-7.085e-05 -0.065585 0.075744 204 204 204
0.00112895 -0.065157 0.0757212 204 204 204
0.00248685 -0.065732 0.0758968 204 204 204
0.00368225 -0.065305 0.075874 204 204 204
0.00487765 -0.064879 0.0758512 204 204 204
0.00607305 -0.064453 0.0758284 204 204 204
0.00740905 -0.065036 0.0760044 204 204 204
0.00859995 -0.064611 0.0759817 204 204 204
0.00979095 -0.064186 0.075959 204 204 204
0.0109819 -0.063762 0.0759363 204 204 204
0.0132456 -0.061897 0.0756916 204 204 204
0.014555 -0.062488 0.0758681 204 204 204
0.0156364 -0.061044 0.075646 204 204 204
0.0168317 -0.060618 0.0756232 204 204 204
0.0180271 -0.060192 0.0756004 204 204 204
0.0191262 -0.058742 0.0753779 204 204 204
0.020326 -0.058314 0.0753551 204 204 204
0.0215258 -0.057887 0.0753322 204 204 204
0.0227256 -0.057459 0.0753093 204 204 204
0.0240041 -0.058062 0.0754864 204 204 204
0.0251995 -0.057635 0.0754636 204 204 204
0.0263949 -0.057209 0.0754408 204 204 204
0.0275903 -0.056783 0.075418 204 204 204
0.0287857 -0.056357 0.0753952 204 204 204
0.0299812 -0.055931 0.0753724 204 204 204
0.0311242 -0.054465 0.0751491 204 204 204
0.0323242 -0.054037 0.0751262 204 204 204
0.033524 -0.05361 0.0751034 204 204 204
0.0347238 -0.053182 0.0750805 204 204 204
0.0358889 -0.051708 0.0748568 204 204 204
0.0370931 -0.051279 0.0748338 204 204 204
0.0382974 -0.05085 0.0748108 204 204 204
0.0395229 -0.051471 0.0749889 204 204 204
0.0407228 -0.051044 0.0749661 204 204 204
0.0419226 -0.050616 0.0749432 204 204 204
0.0431142 -0.049133 0.074719 204 204 204
0.0443185 -0.048704 0.074696 204 204 204
0.0455233 -0.047216 0.0744715 204 204 204
0.046737 -0.045724 0.0742469 204 204 204
0.0479503 -0.045292 0.0742237 204 204 204
0.0491774 -0.043796 0.0739988 204 204 204
0.0504124 -0.042297 0.0737737 204 204 204
-0.0133506 -0.06399 0.0734863 204 204 204
-0.0119175 -0.064537 0.0736652 204 204 204
-0.0104935 -0.065088 0.0738442 204 204 204
-0.00907805 -0.065642 0.0740234 204 204 204
-0.00767155 -0.066199 0.0742027 204 204 204
-0.00646285 -0.065768 0.0741797 204 204 204
-0.00525425 -0.065337 0.0741566 204 204 204
-0.00386535 -0.065901 0.0743363 204 204 204
-0.00266115 -0.065471 0.0743134 204 204 204
-0.00145685 -0.065042 0.0742904 204 204 204
-8.565e-05 -0.065612 0.0744704 204 204 204
0.00111415 -0.065184 0.0744476 204 204 204
0.00247215 -0.065758 0.0746279 204 204 204
0.00366755 -0.065332 0.0746051 204 204 204
0.00486305 -0.064906 0.0745823 204 204 204
0.00605845 -0.06448 0.0745595 204 204 204
0.00725385 -0.064054 0.0745367 204 204 204
0.00858535 -0.064638 0.0747175 204 204 204
0.00977635 -0.064213 0.0746947 204 204 204
0.0109673 -0.063789 0.074672 204 204 204
0.0121584 -0.063364 0.0746493 204 204 204
0.0132308 -0.061923 0.0744227 204 204 204
0.0144262 -0.061497 0.0743999 204 204 204
0.0156216 -0.061071 0.0743771 204 204 204
0.016817 -0.060645 0.0743543 204 204 204
0.0179116 -0.059196 0.0741272 204 204 204
0.0191114 -0.058769 0.0741043 204 204 204
0.0203112 -0.058341 0.0740815 204 204 204
0.021511 -0.057913 0.0740586 204 204 204
0.0227108 -0.057486 0.0740357 204 204 204
0.0239106 -0.057058 0.0740128 204 204 204
0.0251104 -0.05663 0.0739899 204 204 204
0.0263103 -0.056203 0.073967 204 204 204
0.0275102 -0.055775 0.0739442 204 204 204
0.02871 -0.055347 0.0739213 204 204 204
0.0299097 -0.05492 0.0738984 204 204 204
0.0311095 -0.054492 0.0738755 204 204 204
0.0323093 -0.054064 0.0738526 204 204 204
0.0335091 -0.053637 0.0738298 204 204 204
0.0346698 -0.052164 0.0736014 204 204 204
0.0358742 -0.051735 0.0735785 204 204 204
0.0370784 -0.051306 0.0735555 204 204 204
0.0382826 -0.050877 0.0735325 204 204 204
0.0394867 -0.050447 0.0735096 204 204 204
0.040691 -0.050018 0.0734866 204 204 204
0.0418953 -0.049589 0.0734636 204 204 204
0.0430995 -0.04916 0.0734407 204 204 204
0.0442998 -0.047673 0.0732116 204 204 204
0.0455086 -0.047243 0.0731885 204 204 204
0.0467221 -0.045752 0.0729592 204 204 204
0.0479353 -0.045319 0.0729361 204 204 204
0.0491624 -0.043823 0.0727065 204 204 204
0.0503974 -0.042325 0.0724767 204 204 204
0.0516194 -0.041889 0.0724534 204 204 204
-0.0131544 -0.065 0.0723915 204 204 204
-0.0119327 -0.064565 0.0723681 204 204 204
-0.0105083 -0.065115 0.0725519 204 204 204
-0.00909295 -0.065669 0.0727357 204 204 204
-0.00768635 -0.066226 0.0729198 204 204 204
-0.00647775 -0.065795 0.0728967 204 204 204
-0.00526905 -0.065364 0.0728737 204 204 204
-0.00406045 -0.064933 0.0728506 204 204 204
-0.00267595 -0.065498 0.0730351 204 204 204
-0.00147165 -0.065069 0.0730121 204 204 204
-0.00026745 -0.06464 0.0729892 204 204 204
0.00109945 -0.065211 0.073174 204 204 204
0.00229925 -0.064783 0.0731511 204 204 204
0.00365295 -0.065359 0.0733361 204 204 204
0.00484835 -0.064933 0.0733133 204 204 204
0.00604375 -0.064507 0.0732905 204 204 204
0.00723915 -0.064081 0.0732677 204 204 204
0.00843455 -0.063654 0.0732449 204 204 204
0.00962995 -0.063228 0.0732221 204 204 204
0.0108254 -0.062802 0.0731993 204 204 204
0.0120208 -0.062376 0.0731765 204 204 204
0.0132162 -0.06195 0.0731538 204 204 204
0.0144116 -0.061524 0.073131 204 204 204
0.015607 -0.061098 0.0731082 204 204 204
0.0168024 -0.060672 0.0730854 204 204 204
0.0178968 -0.059223 0.0728536 204 204 204
0.0190966 -0.058796 0.0728307 204 204 204
0.0202965 -0.058368 0.0728079 204 204 204
0.0214963 -0.05794 0.072785 204 204 204
0.0226962 -0.057512 0.0727621 204 204 204
0.0238959 -0.057085 0.0727392 204 204 204
0.0250957 -0.056657 0.0727163 204 204 204
0.0262955 -0.056229 0.0726934 204 204 204
0.0274953 -0.055802 0.0726706 204 204 204
0.0286951 -0.055374 0.0726477 204 204 204
0.0298949 -0.054946 0.0726248 204 204 204
0.0310949 -0.054519 0.0726019 204 204 204
0.0322466 -0.05305 0.0723691 204 204 204
0.0334508 -0.052621 0.0723461 204 204 204
0.034655 -0.052191 0.0723231 204 204 204
0.0358594 -0.051762 0.0723002 204 204 204
0.0370635 -0.051333 0.0722772 204 204 204
0.0382677 -0.050904 0.0722543 204 204 204
0.0394719 -0.050474 0.0722313 204 204 204
0.0406763 -0.050045 0.0722083 204 204 204
0.0418678 -0.048562 0.0719747 204 204 204
0.0430763 -0.048131 0.0719517 204 204 204
0.044285 -0.0477 0.0719286 204 204 204
0.0454942 -0.046211 0.0716947 204 204 204
0.0467072 -0.045779 0.0716716 204 204 204
0.0479294 -0.044285 0.0714374 204 204 204
0.0491473 -0.043851 0.0714142 204 204 204
0.0503823 -0.042352 0.0711797 204 204 204
0.0516044 -0.041916 0.0711564 204 204 204
-0.0129583 -0.06601 0.071306 204 204 204
-0.0117408 -0.065576 0.0712827 204 204 204
-0.010321 -0.066128 0.0714712 204 204 204
-0.00910785 -0.065696 0.0714481 204 204 204
-0.00770125 -0.066253 0.0716368 204 204 204
-0.00649255 -0.065822 0.0716138 204 204 204
-0.00528395 -0.065391 0.0715907 204 204 204
-0.00407525 -0.06496 0.0715677 204 204 204
-0.00286665 -0.06453 0.0715446 204 204 204
-0.00148645 -0.065096 0.0717338 204 204 204
-0.00028225 -0.064667 0.0717109 204 204 204
0.00108465 -0.065238 0.0719004 204 204 204
0.00228455 -0.06481 0.0718775 204 204 204
0.00348435 -0.064382 0.0718546 204 204 204
0.00468415 -0.063954 0.0718317 204 204 204
0.00588395 -0.063527 0.0718088 204 204 204
0.00708375 -0.063099 0.071786 204 204 204
0.00828355 -0.062671 0.0717631 204 204 204
0.00948345 -0.062244 0.0717402 204 204 204
0.0106832 -0.061816 0.0717173 204 204 204
0.011883 -0.061388 0.0716944 204 204 204
0.0130829 -0.060961 0.0716715 204 204 204
0.0142827 -0.060533 0.0716487 204 204 204
0.0154825 -0.060105 0.0716258 204 204 204
0.0166823 -0.059678 0.0716029 204 204 204
0.0178821 -0.05925 0.07158 204 204 204
0.0190819 -0.058822 0.0715571 204 204 204
0.0201895 -0.057369 0.0713205 204 204 204
0.0213938 -0.05694 0.0712975 204 204 204
0.0225981 -0.056511 0.0712745 204 204 204
0.0238023 -0.056081 0.0712516 204 204 204
0.0250064 -0.055652 0.0712286 204 204 204
0.0262107 -0.055223 0.0712056 204 204 204
0.027415 -0.054794 0.0711827 204 204 204
0.0286192 -0.054364 0.0711597 204 204 204
0.0298234 -0.053935 0.0711367 204 204 204
0.0310276 -0.053506 0.0711138 204 204 204
0.0322318 -0.053077 0.0710908 204 204 204
0.0334361 -0.052647 0.0710678 204 204 204
0.0346403 -0.052218 0.0710449 204 204 204
0.0358445 -0.051789 0.0710219 204 204 204
0.0370487 -0.05136 0.0709989 204 204 204
