0.13934421649282655,-0.1622116534734228,0.4233019774810053,0.2987223607548802,-0.892862973414836,-0.33698762868961385
0.15708221913468107,-0.15587827204441806,0.4229649025266694,0.31422514087820436,-0.891728905251959,-0.325702502873735
0.1748171986827747,-0.14956000608421763,0.4226263160254528,0.34303156850310074,-0.8815859957252283,-0.32424601023213834
0.19255217823086831,-0.1432417401240172,0.42228772952423627,0.3631123613699224,-0.8810801951561655,-0.3030628692597167
0.21028715777896198,-0.13692347416381676,0.4219491430230199,0.37818632378526207,-0.8741394331268737,-0.3047217681007
0.2280251604208165,-0.1305900927348121,0.42161055652180335,0.3780044566032965,-0.8735993034630744,-0.3064912523659979
0.2457586284220297,-0.12427182677461165,0.42127348156746747,0.3719538462919187,-0.8798306850630815,-0.29588562291885073
0.2634951195170037,-0.11795356081441122,0.42093489506625087,0.3761435252712214,-0.876232559466246,-0.301218442542567
0.28123009906509744,-0.11163529485421078,0.4205963085650343,0.37702972744794233,-0.8793285065162694,-0.2909122930513551
0.29818814351664963,-0.08956671039992233,0.4182186453221168,0.3727822011780628,-0.8892801092371249,-0.2649798441392205
0.3167015697081651,-0.0989836474650057,0.41992064710948185,0.3934231923346049,-0.8825531347007582,-0.25752311772560127
0.3337941418320757,-0.07688483207310859,0.4175399607728034,0.42965707769108036,-0.8667498202833709,-0.2532578619287171
0.35159411789602785,-0.07053633517529952,0.41719986272470655,0.4814627565133585,-0.836338274042332,-0.26216770484262897
0.36939862860062134,-0.06418783827749054,0.41685976467660973,0.5996814302368296,-0.7615451820064391,-0.2458274150535086
0.3867542098817268,-0.04198321460396329,0.41447454369929004,0.6291594337679056,-0.7466921704335844,-0.2158916615203826
0.4042458303820712,-0.01973324452402307,0.4120862996282095,0.6677544355205401,-0.7292647854635499,-0.1492544355302288
0.42218033411838163,-0.013339401219801126,0.41174469003323216,0.669808813099661,-0.7390459909668927,-0.0718830795791836
0.43986996726006233,0.008986146204160599,0.40935191132151033,0.6451073101829594,-0.7616137365712206,0.06149044327804531
0.4578724906059922,0.015395104977186864,0.4090087901796525,0.6381752090899103,-0.7644087550998455,0.09171508943327542
0.4757631594827702,0.0377962297451702,0.40661298837416976,0.7354939443054821,-0.6615005469917306,0.1465117204171922
0.49378684448502613,0.060227585450762074,0.4042141634749262,0.8033105217011712,-0.5712881481155151,0.16829158489638618
0.51194354561276,0.08271940303157113,0.40181382702880225,0.8580069600846375,-0.5056780457591916,0.09007647019885011
0.5303179094912758,0.12130919488896742,0.3973532521846513,0.842236819981959,-0.5387916707677023,-0.018457371915446136
0.5489703979957908,0.15998967955918963,0.39288814269985894,0.8800923973471377,-0.47379726375499676,-0.03087919995799726
0.5676531174379146,0.18266288276565035,0.39047722542557184,0.8571802265564249,-0.5051143815222291,-0.10050632209016346
-0.3655865073681751,-0.11830121659691031,0.384343368184784,-0.5055093900671807,-0.8273994646474132,0.24468425052520443
-0.3438701133370269,-0.12658449350167067,0.38605595080031196,0.4903372958621858,0.8366403886614968,-0.24413561056695365
-0.3222890027516773,-0.13489800134403965,0.3877685334158399,-0.48953595027186536,-0.8381031128868711,0.24070256658531594
-0.297925890132895,-0.15825140064669413,0.39155646989819937,-0.48574164837730593,-0.8500983069850195,0.2034402111012006
-0.27667807563468033,-0.1666858322394976,0.3932766102481295,-0.4778909648271809,-0.8613301647090927,0.17242555813670166
-0.25556176571506317,-0.17516561023871402,0.39499826214494005,-0.4415638021166975,-0.8868833051397053,0.13586541769235677
-0.23457998346780437,-0.18370585011314755,0.3967244486823921,-0.3710301939426311,-0.9255313126306688,0.07568609200536562
-0.213729705799143,-0.19229143639399401,0.39845214676672436,-0.3319659523448832,-0.9409981655750462,0.06573476149004057
-0.19301546734972042,-0.20092236908125347,0.40018286794481756,-0.3152147083961685,-0.9490127822927333,0.0037982437683045625
-0.1724327334788953,-0.20959864817492588,0.4019151006697911,-0.21535543764817167,-0.9763099846626413,-0.020996412155350096
-0.15443021013296543,-0.2031896894018995,0.4015719795279333,-0.14847162716726545,-0.9866459078559129,-0.06697782048921952
-0.1340485119972376,-0.2119264303707892,0.4033087468935482,-0.08055352799430321,-0.9910148203039058,-0.10677431838081815
-0.11379831844010724,-0.220723633214896,0.40504853735292407,-0.08703565690700936,-0.9854773061501789,-0.1458056017090969
-0.0959303227665357,-0.21436002084828257,0.40470843930482703,-0.01605903374887717,-0.9852473586476123,-0.17038118943403285
-0.07588116494450262,-0.22323280103641097,0.40645125285796363,0.048712574418501346,-0.9817849458321963,-0.18364478002598747
-0.058078165786789586,-0.21688430413860188,0.4061111548098668,0.13609964465626212,-0.978250629724645,-0.15653303858219403
-0.04027667817595699,-0.21053580724079282,0.4057725683086502,0.15869153816609993,-0.9749571642873166,-0.15580604455319275
-0.022474434791684185,-0.20418731034298374,0.4054324702605534,0.1742604655423073,-0.9665977430751164,-0.1879417282858426
-0.004671435633971166,-0.19783881344517484,0.40509237221245653,0.1852035584688233,-0.9602671138683728,-0.20877430865264723
0.01313156352374185,-0.1915054320161701,0.40475378571124,0.17442817095671775,-0.9598733803833138,-0.21958576185218429
0.032712141812841405,-0.2005293668923415,0.4065056685456592,0.18046557297921584,-0.9570423626869371,-0.226940725723455
0.050448632907815476,-0.19421110093214106,0.4061670820444427,0.22871369293430333,-0.9526973681725303,-0.20014437624247094
0.06818512400278957,-0.18789283497194062,0.4058284955432263,0.3143742296902302,-0.9272669288838177,-0.20333441987289713
0.08592161509776361,-0.18157456901174018,0.4054914205888902,0.3967917820937907,-0.8959281666336191,-0.19967223616556182
0.10365508309897681,-0.17524118758273544,0.40515283408767366,0.3877645023630129,-0.8897358186323269,-0.24085029323176774
0.1213915741939509,-0.16892292162253522,0.4048142475864573,0.3636636138317064,-0.8886273607511725,-0.27944621969042466
0.13912806528892493,-0.16260465566233478,0.4044756610852407,0.32424026579848364,-0.8922608107903087,-0.3142274583207989
0.1568630448370186,-0.15628638970213435,0.40413707458402437,0.2939739852653682,-0.8987459086675825,-0.3253230511975418
0.17459802438511224,-0.14995300827312957,0.40379999962968827,0.32351193674735856,-0.8886707588605063,-0.3249681663305883
0.1923330039332059,-0.14363474231292914,0.40346141312847167,0.34349223095201875,-0.8895498589735248,-0.30118787438372624
0.21007100657506037,-0.1373164763527287,0.40312282662725535,0.3645535922158819,-0.8871864284838128,-0.28284433796106495
0.22780598612315403,-0.13099821039252837,0.40278424012603875,0.36937128470727615,-0.8909972155993376,-0.2639863932628418
0.24456299483960897,-0.10900520328226132,0.40034006882038226,0.38005966717762024,-0.895829778004248,-0.23031208875284026
0.26236297090356114,-0.10265670638445235,0.39999997077228544,0.37580521657710403,-0.8923250001359231,-0.25005306102077784
0.2801674816081546,-0.09630820948664337,0.3996613842710689,0.3784652428373134,-0.8894048351835832,-0.25636516751726796
0.2979689692189872,-0.08995971258883428,0.399321286222972,0.3825520408729031,-0.887299784833017,-0.25759081478045454
0.31577045682981986,-0.08362633115982954,0.398981188174875,0.39528118192991263,-0.8759233117105485,-0.27660646994261845
0.33357496753441324,-0.07727783426202055,0.39864260167365867,0.4205990488264734,-0.8642836216750673,-0.2758808826839852
0.3513749435983654,-0.07092933736421148,0.3983025036255616,0.4868407110903155,-0.8267318165085792,-0.2819585529780947
0.36866552836361244,-0.04875494462829287,0.39584775149174223,0.5680638704073665,-0.7855841026464613,-0.2452775097862763
0.3865350355840643,-0.042376216792875246,0.3955061418967649,0.6072221286959116,-0.7735990389898119,-0.18117895378891374
0.40402363299064786,-0.02012624671293503,0.3930468551223041,0.6466016002279867,-0.7559147056965203,-0.1024662300192102
0.4219596482738387,-0.013732403408713087,0.3927052455273268,0.595736936236549,-0.8025204863414619,-0.03253262678840005
0.4396492814155194,0.008578028546444315,0.39024293565910506,0.5838852409593861,-0.8100010208202001,0.05455613311107635
0.4576533163083297,0.015002102788274903,0.38989981451724726,0.6106377691554457,-0.7888654838340666,0.06937408230819823
0.47565583965425967,0.021411061561301167,0.38955518182850923,0.6546531584975528,-0.7473184319548904,0.11377347375228497
0.4936099935000157,0.04382730179808872,0.38708833731964626,0.7534678250906816,-0.6431631443124115,0.13648225654380924
0.5117213482213366,0.08231128537385485,0.3824917232562564,0.8844253055982513,-0.4602601328760997,0.0771523745734039
0.5301803587251566,0.13693858963262107,0.37576231654457876,0.8697059272846939,-0.49316858694985,-0.019908412587619138
0.5487436659637263,0.15956644643266904,0.3732833796606724,0.8903951836497183,-0.4544640548641545,0.02566787427534945
0.5676531174379146,0.19833762391571697,0.36867165012847825,0.8785178423415214,-0.47422913266823297,-0.05755979861268603
-0.3440998684628524,-0.12699261115938695,0.36630910235436503,-0.46593522979069923,-0.8410089425692026,0.27496967134307765
-0.319536475882413,-0.15027043311801994,0.37023307805596317,-0.46532378470797,-0.8388303936005785,0.28255503208569704
-0.2981526221649595,-0.1586595183044104,0.37202123801551273,-0.47285974893443034,-0.8471863324102272,0.24223743726966582
-0.27690329611986453,-0.16709394989721388,0.37381242106882323,-0.4480050466409969,-0.8692640647138098,0.20897718531319076
-0.25578547465336693,-0.1755737278964303,0.3756066272158945,-0.3880300263416179,-0.907363787199764,0.16162814215298313
-0.23480369240610813,-0.18411396777086383,0.37740234490984603,-0.34053002369588264,-0.9330728909995694,0.11582004594795896
-0.21395341473744675,-0.1926995540517103,0.3792010856975587,-0.3012512096546046,-0.9492360494930402,0.09054629216309175
-0.1932361531942633,-0.20133048673896975,0.38100284957903213,-0.267505008403327,-0.9635369667282074,0.006130597633285389
-0.17265341932343817,-0.21000676583264216,0.38280612500738603,-0.1650011439063066,-0.9849053439283207,-0.05230760949466638
-0.1546508959775083,-0.20358269159081147,0.38246300386552823,-0.09545348335888157,-0.9912073725755971,-0.09163283836287722
-0.13426768629490005,-0.2123345480285055,0.38427081393452334,-0.02694035336737056,-0.9912609410147366,-0.12913544896355994
-0.11633318255858956,-0.20594070472428344,0.38392769279266553,-0.03954442253600626,-0.986329549841026,-0.15996955259265025
-0.09614949706419815,-0.21475302303719454,0.38574003750230207,-0.02487366112182783,-0.9802279840410609,-0.19630180917453163
-0.07827998984374616,-0.20838941067058114,0.38539842790732454,0.04700967692581214,-0.9800662182905959,-0.1930292673169041
-0.05829734008445205,-0.21727730632751385,0.387213795710722,0.10065466486582267,-0.982413976196882,-0.15726225807160826
-0.04049434092673903,-0.21092880942970477,0.38687520920950547,0.19166096621973377,-0.9719229284075822,-0.13649870059215802
-0.022692097542466226,-0.20459542800070002,0.38653511116140865,0.16335821507585943,-0.9817258864077004,-0.09761340852692345
-0.00489060993163363,-0.19824693110289113,0.3861950131133116,0.1721510092103301,-0.9787201759280458,-0.11167294775029338
0.012912389226079388,-0.19189843420508207,0.38585642661209524,0.18192580861979632,-0.976654208603568,-0.1142346575036296
0.032494479062059364,-0.20092236908125347,0.3876793521498947,0.18098593114028957,-0.9770957883790096,-0.11192816026936295
0.05022945861015301,-0.19460410312105303,0.3873407656486781,0.19971900176608448,-0.9682584723872607,-0.1502925513252303
0.06796746125200752,-0.1882858371608526,0.3870021791474617,0.2973046387110464,-0.9385460636161568,-0.17533179481061353
0.08570244080010114,-0.18196757120065216,0.38666359264624517,0.3886494796487671,-0.9033406189567431,-0.18145883310434563
0.10192436192088364,-0.1601710651848412,0.3841589594653714,0.4505178245391013,-0.8689215972499831,-0.2049608440778231
0.11972584953171622,-0.1538225682870323,0.38381886141727456,0.40062815146053193,-0.8814643647060342,-0.250035313527319
0.13753036023630966,-0.14747407138922322,0.38348027491605796,0.3342214137546162,-0.8923180503612791,-0.303421396060514
0.15533184784714227,-0.14112557449141416,0.38314017686796115,0.2895636595141532,-0.9084246176457722,-0.30152545687537563
0.17313333545797485,-0.1347770775936052,0.38280007881986433,0.29212932797982666,-0.9152955727911808,-0.2772985217467257
0.19093633461568787,-0.1284436961646004,0.38246149231864773,0.33803355689703013,-0.9028775730238568,-0.26560384511917745
0.20873782222652046,-0.12209519926679144,0.3821213942705509,0.3744869073616838,-0.8926260580963647,-0.2509547302244508
0.22653930983735307,-0.11574670236898237,0.3817812962224539,0.37902104641525597,-0.8873900442126003,-0.2624537212665194
0.24434382054194656,-0.10939820547117339,0.3814427097212375,0.3810711927197542,-0.8842918489651735,-0.26983823289685727
0.2621453081527791,-0.1030497085733643,0.38110261167314047,0.38848600674960526,-0.8797716426032617,-0.2740081740220617
0.2799483073104922,-0.09671632714435965,0.3807640251719241,0.3731965118297512,-0.8857200472157575,-0.27608759754509565
0.2977497949213247,-0.09036783024655057,0.38042392712382705,0.38237518647703783,-0.8856125464905145,-0.2635898978816086
0.31555279407903775,-0.08401933334874159,0.38008382907573024,0.4082514021960008,-0.8752359409168262,-0.2594086358092906
0.33335579323675074,-0.07767083645093252,0.3797452425745137,0.4312609157561885,-0.855237650529318,-0.28737185606496984
0.3505783583923784,-0.05552667465262245,0.3772194477373141,0.5065153336353097,-0.8205661301152042,-0.2647894312469223
0.3684448425190695,-0.04914794681720483,0.37687934968921705,0.5480162992788057,-0.8054456390479034,-0.22568885276742598
0.38586693186291404,-0.026928207674873257,0.37435053175825656,0.561473469402737,-0.8149112261566677,-0.1437610400654164
0.40380294714610493,-0.02053436437065131,0.37400892216327924,0.5876906169253229,-0.8067184365793415,-0.06184741595989524
0.42142607222504674,0.001760952115701767,0.37147708113855776,0.529767880455348,-0.8481319058317618,0.00427354045631774
0.43942708402409614,0.008185026357532354,0.3711324484498195,0.5546357573464812,-0.8314661566220929,0.03229871614755543
0.4574296073700261,0.01459398513055862,0.3707893273079617,0.5799004018262897,-0.813984244332077,0.03384041874512853
0.4754321307159559,0.02101805937238921,0.37044620616610396,0.6406103865074422,-0.7671451161159479,0.033267153744112044
0.4933893076554729,0.04343429960917676,0.3679083189538608,0.7549103442066146,-0.6552492192867306,0.027546920589797307
0.5114976392830328,0.08190316771613856,0.36316961948371057,0.8886715755093729,-0.45684262420232696,0.039467044399349414
0.529953626693092,0.13653047197490478,0.35622859620877256,0.8909814309254871,-0.4518004904270136,0.04503783515980301
0.5485169339316617,0.15915832877495276,0.3536786166214861,0.8909814309254903,-0.45180049042700965,0.04503783515977956
0.5676380019691102,0.21401236506578358,0.34672398942462423,0.8791881369983056,-0.4742185251631859,-0.04631425432306191
-0.3412808335308491,-0.14233481199575868,0.34877062390072733,-0.4551597137530457,-0.8448583259936904,0.2811477262497149
-0.3197632079144776,-0.15067855077573641,0.3506283150167768,-0.44177113347496133,-0.8519011520448998,0.2812520093667251
-0.29837935419702416,-0.15906763596212692,0.3524875176797066,-0.45209894162395564,-0.861808333424028,0.22998465910446841
-0.2771285166050487,-0.16750206755493016,0.3543497434363973,-0.41156850587852,-0.8900312393565628,0.19610139708411958
-0.25322944887855864,-0.1910066215456279,0.35842789691979937,-0.33815744809338366,-0.9266633569281405,0.16414799184163129
-0.23502588979753142,-0.18452208542858012,0.3580802411373002,-0.30929870786067093,-0.9418179084034031,0.13158015323884723
-0.21417561212887007,-0.19310767170942658,0.35995002462839304,-0.2493959021947334,-0.9645001667142018,0.0868395784003574
-0.1934583505856866,-0.2017234889278817,0.36182131966636616,-0.19050094624379793,-0.9813557207331361,0.02550174238291288
-0.17287410516798107,-0.2103997680215541,0.36369714934498076,-0.12644108027934478,-0.9907799263964252,-0.04865994931857959
-0.15487309336893162,-0.20399080924852775,0.36335402820312296,-0.04086965343302982,-0.9965663794216969,-0.07200779704028214
-0.13448837213944292,-0.21272755021741746,0.365231369428618,-0.01843954484037373,-0.9915427629541087,-0.1284637397066275
-0.11655235685625201,-0.20633370691319539,0.3648897598336407,0.002845079397129713,-0.9907867104671818,-0.1354016243803774
-0.09861634157306107,-0.19993986360897356,0.3645481502386634,-0.016058468198217483,-0.9797624759141832,-0.1995184612752332
-0.07849916414140863,-0.2087824128594933,0.36643153765167985,0.04235877339732848,-0.9771210318614808,-0.20842318347590008
-0.06063116846783707,-0.2024188004928799,0.3660899280567026,0.04942140792246177,-0.9825233179807179,-0.1794587809585334
-0.04071351522440147,-0.21133692708742105,0.3679778501103605,0.13738848487631275,-0.9837890939222027,-0.11525373270797974
-0.022911271840128665,-0.2049884301896122,0.3676377520622637,0.1806027411894608,-0.9801986108460016,-0.08119934217973249
-0.005109784229296067,-0.1986399332918031,0.3672991655610471,0.17309566935445564,-0.9797296695131394,-0.10083483488560524
0.01269472647529737,-0.19229143639399401,0.36695906751295027,0.1787262950257701,-0.9798335504473622,-0.08934833453443893
0.030494702539249546,-0.18594293949618493,0.36661896946485345,0.19904566402134544,-0.9717128807551413,-0.12710193157008357
0.050011795859370996,-0.19499710530996497,0.36851444925291355,0.21380671197764686,-0.9661210306153043,-0.1445574076833482
0.06774979850122548,-0.18867883934976454,0.36817586275169695,0.31194144559095394,-0.934103373922424,-0.1736186088798372
0.08548326650243868,-0.1823605733895641,0.36783727625048057,0.4206061061079458,-0.8869610370201588,-0.19076326248215586
0.10170669917010164,-0.16056406737375314,0.3652616003662266,0.47807852635025044,-0.849827756687059,-0.22188669767927413
0.11950667523405377,-0.15421557047594428,0.3649215023181296,0.4206527097270464,-0.8765484712223705,-0.23391040036094668
0.13730967439176678,-0.1478670735781352,0.3645829158169132,0.34396880630902593,-0.911561276509756,-0.22525873890761258
0.15511267354947986,-0.14153369214913045,0.3642428177688162,0.3089301578526836,-0.9208442022109785,-0.23792459482689593
0.17291416116031239,-0.13518519525132147,0.36390271972071936,0.280503890506155,-0.930416917492476,-0.23588541085601306
0.19071867186490588,-0.12883669835351239,0.36356413321950276,0.3195140434811744,-0.9088160752945744,-0.268261285511862
0.20851864792885805,-0.12248820145570341,0.36322403517140595,0.3476514335209113,-0.8923150860195359,-0.28794490450918553
0.22632164708657107,-0.11613970455789432,0.36288544867018957,0.3789286095744715,-0.8876267897442539,-0.26178577305550366
0.2441246462442841,-0.10980632312888967,0.36254535062209253,0.38564473965765844,-0.8866950442924525,-0.25504907998575954
0.2619261338551167,-0.10345782623108059,0.3622052525739957,0.38312128715339866,-0.8896533262499843,-0.24846536664545865
0.27973064455971014,-0.09710932933327161,0.3618666660727792,0.36669576297344436,-0.9004428367088703,-0.2339592170379404
0.29675066243336,-0.07502562941017873,0.3592743631728406,0.41364847855982617,-0.880051445074584,-0.23324748703314552
0.3146186581069315,-0.06866201704356543,0.3589342651247436,0.4279366566581547,-0.8598750990024219,-0.27836133352859166
0.3324881653273835,-0.06228328920814781,0.35859265552976627,0.4561734649387002,-0.8464146955683948,-0.27475067426974975
0.35035616100095507,-0.05591967684153452,0.3582525574816694,0.4688060945527581,-0.8385732085281972,-0.2775172420750021
0.36822566822140707,-0.04955606447492111,0.3579109478866919,0.5016213804119194,-0.8379181821358803,-0.21510255870105796
0.3856477575652516,-0.027321209863785216,0.35531259879923166,0.4891959242090332,-0.8660206913368818,-0.10341909839898691
0.40358377284844243,-0.020927366559563274,0.3549694776573739,0.5397499346335576,-0.8412408950145099,-0.031365022210366106
0.42151827658475294,-0.014533523255341331,0.3546278680623964,0.5462682015750858,-0.8376008054935474,-0.003992816610079597
0.43920639817955326,0.007776908699816071,0.35202347278741425,0.5470682953946862,-0.8370355822494546,0.009365587128885161
0.4572089215254831,0.014200982941646659,0.35168035164555667,0.5846767157483987,-0.811174088505889,-0.012236674315603624
0.4752129564182934,0.020609941714672925,0.35133723050369886,0.6182445655226853,-0.7858070850622365,-0.016759542584965027
0.4931655987171691,0.043026181951460477,0.34872678904119486,0.7441924703672755,-0.666765262570176,-0.040020640654243954
0.5112724187978487,0.08149505005842228,0.3438475157111645,0.8854086880144404,-0.4645765783510383,0.014834353244705948
0.5297268946610273,0.1361223543171885,0.3366948758729664,0.8896903834733575,-0.4505209137927213,0.0740400418044289
0.5482886903527165,0.15875021111723636,0.3340738535822995,0.8867608384919805,-0.4553448058617832,0.07947529862601595
0.5671996533737854,0.1975062731314801,0.3291779532365844,0.880861831428555,-0.4653205083110114,0.08694399621315897
-0.36004215341075524,-0.1493483895209573,0.3294485201281815,-0.48464016617713773,-0.8469125700316477,0.21877615969338474
-0.3384572639582045,-0.1576770128321305,0.3313757424007307,-0.4485269154327471,-0.8682627614957088,0.21199854511819438
-0.3170076579514524,-0.16603586708091236,0.3333044762201604,-0.41131593815776085,-0.8857737441195785,0.21499784474683592
-0.29568880074985754,-0.17445518320491152,0.3352362331333508,-0.39110230668905577,-0.9038798108970791,0.1733213003504194
-0.274504471220621,-0.1829047302665193,0.3371695015934217,-0.3601041723108381,-0.9167355855665037,0.1729764470682808
-0.25345315781686234,-0.19141473920334418,0.33910579314725336,-0.3074859495011696,-0.939048107736168,0.15375643796760705
-0.2325348605385816,-0.1999700945465822,0.3410451077948459,-0.24382595747840385,-0.9648720284087979,0.0978308297727847
-0.2143993210671738,-0.19350067389833855,0.3406989635592274,-0.1910539226215962,-0.9787417465979623,0.07458546853959579
-0.19368054797710993,-0.20213160658559798,0.34264130130058096,-0.12765976783200692,-0.991627185672117,0.019455290105128063
-0.1730963025594044,-0.2108078856792704,0.3445866621356952,-0.10937444523854276,-0.9919319932224409,-0.06409486368279983
-0.1550937792134745,-0.2043838114374397,0.3442435409938374,0.01069667446505361,-0.9972398489797081,-0.07347288453788728
-0.13709125586754464,-0.19797485266441356,0.34390041985197967,0.01816473255886261,-0.9946126225916235,-0.1020576967821525
-0.11677304270079489,-0.20674182457091167,0.34585031532773536,0.034699615339767044,-0.9897982998935169,-0.1381856078728025
-0.09883702741760396,-0.20034798126668985,0.34550870573275805,0.04479083101068005,-0.9867812872913041,-0.15574489561166807
-0.07871984998595151,-0.2091905305172096,0.34746313584915495,0.005855368272090465,-0.981396034786159,-0.19190502225945608
-0.060850342765499534,-0.20281180268179186,0.3471230378010579,0.035823277486158475,-0.9803392476355823,-0.19404033687728434
-0.042980835545047565,-0.19644819031517846,0.3467814282060806,0.061712453857875,-0.9816448320897934,-0.1804577420623487
-0.023130446137791128,-0.20538143237852413,0.34874039296311893,0.19988490636411957,-0.9682459048774023,-0.15015289506349008
-0.0053289585269585315,-0.19903293548071507,0.34840180646190233,0.198038440177499,-0.9641082186854676,-0.17685055520183632
0.012475552177634908,-0.192684438582906,0.3480617084138055,0.17445612513809855,-0.9694064699746514,-0.1726735543535412
0.030277039788467505,-0.1863510571539012,0.3477216103657085,0.221668906267518,-0.9530872104224749,-0.2061253631246463
0.0480785273993001,-0.18000256025609235,0.3473830238644921,0.2449201518538703,-0.944095887773502,-0.22067413510658748
0.06753062420356302,-0.1890718415386765,0.3493495463559324,0.3180878500014959,-0.9285782046055752,-0.19121359160089166
0.08368301416784574,-0.16730556646047418,0.3467043393151787,0.4479583901996147,-0.8706748967939462,-0.20312189626581584
0.10148752487243917,-0.1609570695626653,0.34636424126708165,0.4811369152335107,-0.854134474755265,-0.1973868481792268
0.11783943902493872,-0.1391152171404414,0.34371449958568656,0.4187966260614576,-0.8944770665335733,-0.15658915494067027
0.13570894624539068,-0.13275160477382797,0.34337440153758975,0.3046486069959488,-0.9463969699087732,-0.10734058693206663
0.15357996501272309,-0.12638799240721468,0.34303279194261244,0.3060936881420656,-0.9480763240472071,-0.08635935305873488
0.17269498686264997,-0.13557819744023342,0.3450068721684549,0.30677326526638277,-0.9488115152364218,-0.07514567367830824
0.19049949756724344,-0.12922970054242444,0.344666774120358,0.34751328650259006,-0.9272070767492727,-0.13971954956353508
0.20830098517807602,-0.12288120364461537,0.3443266760722612,0.3513913908551715,-0.9091703007869721,-0.2234579481687653
0.2250549708007701,-0.10090331200315274,0.3416693766564639,0.3712492233275135,-0.909818749858016,-0.18548276627631735
0.24292296647434167,-0.09453969963653934,0.34132927860836687,0.36051022312983055,-0.915208649457265,-0.18007083877599087
0.260793985241674,-0.08816097180112172,0.34098766901338956,0.3959652237462087,-0.8979160347223233,-0.19224551014823282
0.2786604693683652,-0.08179735943450842,0.34064757096529275,0.4130237884936207,-0.8810798908302014,-0.23045514989476176
0.2965314881356976,-0.07543374706789512,0.34030596137031544,0.4220978461967938,-0.8671134121163222,-0.2644763482128733
0.3143994838092691,-0.0690550192324774,0.3399658633222184,0.45745408738376636,-0.8375370550194801,-0.29877657104462174
0.3322689910297211,-0.0626914068658641,0.3396257652741216,0.4462363006313977,-0.8326495846167525,-0.3279753546173162
0.3495565527012073,-0.040517014129945385,0.3369578850301614,0.4307241097165821,-0.8579176001663431,-0.28009664873696793
0.3674910564375178,-0.03412317082572344,0.33661476388830364,0.38852983073628256,-0.8952526028971791,-0.21809939851788065
0.38542707172070867,-0.0277293275215015,0.3362731542933263,0.4183678552045947,-0.895578094394957,-0.15135459877851437
0.40336459855078,-0.021335484217279557,0.3359315446983488,0.49456560260601007,-0.8664204007456295,-0.06870628712670154
0.4212975907402101,-0.014941640913057613,0.3355899351033715,0.5231969142007271,-0.8522085974665096,-0.002344221619554005
0.4389857123350103,0.0073687910420997885,0.33291449712500915,0.5704909697215568,-0.8205540955429921,-0.0350860335999968
0.45698974722782065,0.013792865283930375,0.3325713759831514,0.6083492824730016,-0.791120794970709,-0.0635534285424289
0.4749922705737506,0.02020182405695664,0.33222674329441315,0.6143770377246048,-0.7851850619907742,-0.07762263808505801
0.49294491287262626,0.04261806429374419,0.3295467706754096,0.7339030087052332,-0.6702557253365679,-0.11019816907262037
0.5110502214064254,0.08110204786951032,0.32452541193861867,0.8492726868500476,-0.5279530494608956,0.0012169369096069712
0.5294260968318217,0.11966160878929796,0.3194995185611865,0.844082848997246,-0.5164748574063254,0.14414529369982323
0.548061958320652,0.15832697799071585,0.31446909054311317,0.8634868432835279,-0.479598227817686,0.1561281888397572
-0.3602719085365807,-0.14977162264747793,0.30977271438561477,-0.4568505936260482,-0.8750046817649156,0.16016972870366714
-0.33868701908403,-0.1580851304898468,0.3117709793615442,-0.4148660975376122,-0.8980891534689431,0.14602052436335658
-0.31723287843663656,-0.16644398473862865,0.31377075588435405,-0.37665901202644153,-0.9163377473397439,0.13584226683763972
-0.2959140212350417,-0.1748633008626278,0.3157720439540444,-0.40158966857399947,-0.9057813229916295,0.13522548951347305
-0.2747281801589247,-0.18331284792423558,0.31777635511749547,-0.34385321896474713,-0.9313703173771223,0.11964236589277356
-0.2536768667551661,-0.19182285686106046,0.3197836893747075,-0.2714864868595544,-0.9564321431446084,0.10739014392609904
-0.2327570579300049,-0.2003782122042985,0.3217940467256803,-0.16356652829430096,-0.9847941355346436,0.05853632580136624
-0.21462151845859712,-0.19390879155605484,0.3214479024900618,-0.12678328535040895,-0.9904932855132571,0.0533764921000816
-0.19390274536853325,-0.20253972424331426,0.3234612829347955,-0.0926020243025558,-0.9956260885075213,0.012391810936345086
-0.17583371395986444,-0.19610053453267948,0.32311665024605724,-0.0499758897085031,-0.9979354100149744,-0.04034015228142487
-0.15531446505801738,-0.2047919290951562,0.32513456533143215,0.022878276498922705,-0.9970161386327598,-0.07372519087978244
-0.13731194171208752,-0.1983678548533255,0.32479144418957456,0.04233440035944874,-0.9941400856629665,-0.09946501206070107
-0.11699372854533778,-0.20713482675982364,0.32681238236871024,0.03152801139322649,-0.9932603119969363,-0.11153446601538491
-0.09905771326214684,-0.20074098345560182,0.32647077277373293,0.04861261496521161,-0.9904023104708826,-0.12938344979239644
-0.08112169797895592,-0.19434714015137974,0.3261276516318752,0.013446046671100893,-0.9941353424236729,-0.10730388983203307
-0.06106951706316199,-0.20321992033950814,0.32815463599853273,0.038495231890781,-0.9911245542795114,-0.12724085439007055
-0.04320152138959045,-0.19684119250409043,0.3278130264035554,0.06722990762335446,-0.9833484567537027,-0.1688370579021866
-0.02334962043545359,-0.2057744345674361,0.32984303386397396,0.1504973263113347,-0.9714385949770211,-0.18346010727733422
-0.005546621277740547,-0.19944105313843136,0.32950444736275736,0.2387509482237503,-0.9535809538242035,-0.1835247918565291
0.01225637787997247,-0.19309255624062227,0.32916434931466054,0.21033873025567318,-0.9559226077605033,-0.20486480060466733
0.030057865490805066,-0.18674405934281338,0.32882576281344394,0.23346654504520367,-0.9352687025235601,-0.2660184700815953
0.047859353101637636,-0.18039556244500432,0.32848566476534713,0.2581548896696949,-0.9259389412963634,-0.2756685145797341
0.06566235225935067,-0.17404706554719523,0.3281455667172503,0.30749894041418707,-0.9123460616703533,-0.2703129027603905
0.0834653514170637,-0.16769856864938615,0.3278069802160337,0.4046755218800321,-0.8842154216611928,-0.23323981239840355
0.10126835057477672,-0.1613651872203816,0.3274668821679369,0.4495827488742361,-0.8753795521596243,-0.17772448220631096
0.11762026472727626,-0.13952333479815768,0.3247460977831616,0.3603326447164019,-0.9261206081099571,-0.11162886896195999
0.1354897719477282,-0.13314460696273994,0.32440599973506457,0.3200956024238973,-0.9422649159315306,-0.09836479814154934
0.15335776762129977,-0.12678099459612666,0.32406439014008726,0.3039781707410734,-0.9482188583482872,-0.0920775129202643
0.1712272748417517,-0.12041738222951334,0.32372429209199044,0.3296377222860136,-0.9393809203542571,-0.09435284055330752
0.18909829360908412,-0.11403865439409562,0.32338268249701313,0.41447376198937524,-0.9043784836053961,-0.1015433848853737
0.2069647777357753,-0.10767504202748232,0.3230425844489161,0.39163622641904616,-0.9116561070208555,-0.12451589732973133
0.22483579650310764,-0.1012963141920647,0.3227024864008193,0.37472958266414585,-0.9144317248716392,-0.15294561263610637
0.2427037921766792,-0.0949327018254514,0.32236087680584197,0.37732360931994113,-0.9068838986041328,-0.18758594910691365
0.26057329939713114,-0.088569089458838,0.3220207787577449,0.40904918653872124,-0.8903971247823981,-0.19967905040651868
0.27844129507070275,-0.08219036162342037,0.3216791691627676,0.4320277444621577,-0.8781550167572584,-0.2054161497034737
0.2963123138380351,-0.07582674925680707,0.32133907111467075,0.4796394418271271,-0.8381423390066167,-0.25973722376332486
0.3134638362902825,-0.05369770292730134,0.31860317126109117,0.49335884035414107,-0.8248032529518889,-0.27621847976628827
0.33140136312035384,-0.04730385962307939,0.31826005011923336,0.41776218522018327,-0.8586767406163279,-0.2968989924613706
0.34933435530978396,-0.04091001631885745,0.31791844052425605,0.36880403813936646,-0.8804753093020571,-0.297904030119674
0.36727037059297485,-0.034516173014635505,0.31757683092927874,0.35472496301454004,-0.9031499487673714,-0.24184782541058222
0.3852078974230462,-0.028122329710413566,0.31723522133430127,0.3356160153837969,-0.9221229616933855,-0.19248671054314892
0.4031424011593567,-0.021728486406191624,0.31689210019244346,0.41793897139072933,-0.896650307380921,-0.1461001111106997
0.4210784164425476,-0.01533464310196968,0.31655049059746615,0.49908096653792844,-0.8622160861649624,-0.08661183289794482
0.438763514943587,0.006975788853187828,0.31380400991572366,0.5754529288321469,-0.8146834536919596,-0.07172724014657952
0.45676603828951695,0.013384747626214093,0.31346088877386585,0.6406934668809412,-0.7584669020097407,-0.11933080093515913
0.47465217252565367,0.035770756925393,0.31071138499836237,0.7032714740867502,-0.6997837202420341,-0.1253474316452802
0.49267434598102916,0.058202112630984876,0.307958858129098,0.7797728596661494,-0.6185263971831857,-0.09684721635474951
0.5108265124681216,0.08069393021179404,0.3052048197129531,0.802877365064736,-0.596088376244026,-0.00815992484445771
0.5291948301591157,0.11925349113158168,0.3000368409287606,0.8023956664088792,-0.5642938183359038,0.19425159231300224
0.5476855831474248,0.141851116994021,0.29727524477821377,0.8320218648217875,-0.5121591977614016,0.21314917923105492
-0.3604986405686453,-0.1501797403051942,0.29009842018992854,-0.42151881378365774,-0.9009242838157919,0.10323431821550572
-0.3389137511160946,-0.15849324814756308,0.29216621632235784,-0.3963666072858252,-0.9150437490166383,0.07475593631478218
-0.3174596104687012,-0.16685210239634493,0.2942355240016674,-0.40064415581823315,-0.9134309369968168,0.07161133810935784
-0.2961392417202259,-0.17527141852034409,0.2963093663216184,-0.37953548491463823,-0.9213399120562721,0.08417590001152925
-0.2749534006441089,-0.18372096558195186,0.2983847201884497,-0.3389178767899785,-0.9396447306700502,0.046930298488096225
-0.25390057569346985,-0.19223097451877674,0.3004615856021617,-0.2512982129111931,-0.9665586241981013,0.05112371441820637
-0.23298076686830865,-0.20078632986201478,0.3025429856565146,-0.1544921493852283,-0.986531654330227,0.05373519128837072
-0.21484522739690087,-0.19431690921377112,0.3021968414208961,-0.08606008488785154,-0.9951226672187494,0.04821347297735254
-0.19412494275995656,-0.20293272643222623,0.30428126456901,-0.05656418858916545,-0.998383155449888,0.005618494742755306
-0.17605591135128773,-0.19649353672159142,0.30393663188027176,-0.009051217362406527,-0.9996324596270584,-0.02555427800224668
-0.15553515090256026,-0.20518493128406817,0.3060255896690271,0.015505491849119996,-0.9980812721992462,-0.059944589477710954
-0.13753413910351084,-0.1987759725110418,0.30568095698028885,0.0435913441915364,-0.9972306136411729,-0.06025693261712433
-0.11953161575758096,-0.1923518982692113,0.30533783583843105,0.054594162456982245,-0.9960725572439367,-0.06970608388903313
-0.09927839910668973,-0.20114910111331807,0.3074313282678276,0.032446543852847266,-0.996786677624557,-0.07323620076303061
-0.08134238382349882,-0.19475525780909603,0.3070897186728503,0.04106534885949703,-0.9962925848679264,-0.07559578334955816
-0.06340636854030789,-0.1883614145048742,0.30674659753099254,0.06414251589614303,-0.9972512901964279,-0.03708910697324731
-0.04342069568725289,-0.1972493101618069,0.30884613614791073,0.10466711135796246,-0.9886654000140681,-0.10763606558678582
-0.02555194424024113,-0.19087058232638918,0.3085045265529334,0.16242957729955856,-0.9786028708375523,-0.12630539816962583
-0.00768092547290874,-0.18450696995977578,0.3081644285048366,0.20309825244580748,-0.9640390776558118,-0.17140524089417725
0.010185558653782383,-0.1781433575931626,0.3078228189098593,0.2599227858801363,-0.945317144322933,-0.1970168572215178
0.028056577421114774,-0.17176462975774487,0.30748272086176226,0.27042627895448845,-0.9408997731796113,-0.20390498885850103
0.04764320189773604,-0.18078856463391627,0.3095883056662024,0.26923049456750625,-0.9342824434298376,-0.23373330249176813
0.06544468950856863,-0.17445518320491152,0.30924820761810534,0.30582333993403776,-0.9190100237063465,-0.24878235684800953
0.08324617711940123,-0.16810668630710243,0.30890962111688897,0.37798932834535925,-0.9027494596253723,-0.2053472201007905
0.09953309475604222,-0.14629506482248714,0.3061193055756138,0.3725398410935349,-0.9201114985114398,-0.12086727061134679
0.11740109042961379,-0.13991633698706962,0.3057792075275169,0.34072721326449285,-0.9368805738665448,-0.0784841159248569
0.13665517459254028,-0.1490611956136754,0.3078908385194785,0.3285665919915585,-0.9403931198349196,-0.08777684657242658
0.15445666220337287,-0.14271269871586653,0.3075507404713817,0.301903481800896,-0.9499271082873799,-0.08057776751233826
0.17225814981420548,-0.13637931728686167,0.30721215397016516,0.3251512163914891,-0.9409330493179056,-0.09445466203657028
0.18887609621766083,-0.114446772051812,0.30441579224136844,0.3934272804633817,-0.9175472231598183,-0.05763738594778655
0.20674560343811282,-0.10806804421639428,0.3040741826463909,0.4262557103538873,-0.8981476573504107,-0.1078742554397111
0.22461662220544523,-0.10170443184978098,0.3037340845982941,0.3881728392944523,-0.906824039198054,-0.16429244890319708
0.24248461787901676,-0.09534081948316768,0.3033924750033168,0.39513115880495825,-0.9024028853034437,-0.17187320889967322
0.26035261355258826,-0.08896209164775007,0.30305237695521997,0.40151801161639233,-0.8976252753292088,-0.18180250668728629
0.27822212077304026,-0.08259847928113666,0.30271076736024244,0.46668164318692923,-0.8630440448206612,-0.19329568182435003
0.2953071351625487,-0.06049966388923956,0.2999068478970436,0.5237827547766406,-0.8216391448091329,-0.22485715802684675
0.31324466199262,-0.05410582058501762,0.2995637267551858,0.5049364597873113,-0.8249076838397148,-0.25409935993554655
0.3305292005703453,-0.03193142784909891,0.29675527265134555,0.4409202402647192,-0.8626168727922804,-0.24795457749146133
0.3485302123693948,-0.025507353607268426,0.29641215150948774,0.3486312142708874,-0.9010816307072407,-0.25789178202879326
0.36653273571532463,-0.01909839483424216,0.29606903036763,0.2806853169287928,-0.9325042064059778,-0.2272700109907616
0.38498570003162286,-0.028530447368129846,0.2981957768283959,0.2924128572790694,-0.9361785832807151,-0.19510095105971142
0.40292171531481386,-0.022136604063907904,0.29785416723341857,0.3718985087615871,-0.9121190696446313,-0.1724247719195825
0.4208577305980047,-0.01574276075968596,0.2975110460915608,0.4739637037205412,-0.8675631305901988,-0.15064070497724222
0.4385428290990442,0.006567671195471545,0.2946950342533184,0.5872862993285147,-0.7962089192431497,-0.145417191345018
0.4563624552724419,0.02893856502584613,0.2918759993213152,0.6525798656457352,-0.7442136989730542,-0.14242713651070196
0.47443148668111074,0.03537775473648104,0.29153136663257695,0.6778582929584765,-0.7227364240025275,-0.1347597717698379
0.49245063704272535,0.05780911044207292,0.2887077970599323,0.7530710269921012,-0.6520427302080315,-0.08788803267748455
0.5106012919829375,0.08028581255407775,0.28588271594040726,0.7686137660852059,-0.6395016992543098,-0.016445523256098445
0.5288879861423883,0.10280786107249547,0.28305461172712143,0.7656942516833194,-0.6202387000303429,0.17034162123154675
0.547307696427317,0.12539037146613047,0.2802234844200747,0.7842343777494869,-0.5919524563988693,0.18592667941750554
0.5656412485400613,0.1319202539895911,0.2798743170906952,0.8119372777332691,-0.5537495728619238,0.18471401566293102
-0.36384520536191894,-0.1356991211906679,0.2679315851884121,-0.4028065439815561,-0.9138284804378393,0.05161779214868144
-0.33913897160127876,-0.15890136580527936,0.27255994173629106,-0.39019328476257775,-0.9205228050548633,0.019671448856564352
-0.31768483095388533,-0.16727533552286555,0.2747018036658613,-0.391337442731384,-0.9199701802310772,0.022580376481801716
-0.29636446220541,-0.17567953617806037,0.276845177142312,-0.3707090163565343,-0.928441952305751,0.023882344747871202
-0.27517710958241265,-0.18412908323966815,0.2789915737125237,-0.33306964695267965,-0.9426373954277977,0.022346163427201284
-0.25412428463177356,-0.19263909217649303,0.2811409933764961,-0.2549789948452155,-0.9662889637076224,0.03565600657074136
-0.23320296425973197,-0.20117933205092672,0.283291924587349,-0.15354567724693277,-0.9877583420269787,0.027516953953791008
-0.2150674247883242,-0.1947250268714876,0.28294578035173046,-0.06395003344945413,-0.9977532380341129,0.019971710348806317
-0.19434714015137988,-0.20334084408994252,0.2851012462032246,-0.022060410196109027,-0.9997513627733396,-0.00324822025572434
-0.17627810874271105,-0.1969016543793077,0.2847566135144865,0.015026937240945889,-0.9997052464605595,-0.019068596078073926
-0.15575734829398358,-0.20559304894178446,0.28691510245974156,0.024819388295025373,-0.9980620124946102,-0.0570632734766378
-0.13775482494805372,-0.19918409016875807,0.28657198131788375,0.03175762674672689,-0.9977749941119937,-0.05862179004624957
-0.11975230160212384,-0.1927600159269276,0.286228860176026,0.058139470308884916,-0.9979091134127893,-0.028234789885935446
-0.09949908495123261,-0.20154210330223005,0.2883933953088027,0.04218177053889,-0.9990635290042605,-0.009631367906865012
-0.0815630696680417,-0.19514825999800822,0.28805027416694495,0.037312348974652534,-0.9993034164982262,-0.000685849084334693
-0.06362705438485076,-0.18875441669378618,0.28770866457196764,0.0752322451166955,-0.9971639762806747,0.002028226519799284
-0.04363986998491535,-0.19764231235071889,0.2898777343453858,0.1269014194547711,-0.9912304334754051,-0.03685454507282657
-0.025771118537903592,-0.19127869998410546,0.2895361247504083,0.19200685141128634,-0.979288033302941,-0.06425197927521241
-0.007903122864332047,-0.18489997214868775,0.2891960267023114,0.23888617306171217,-0.9660043505848658,-0.0988382060290524
0.00996638435611992,-0.17853635978207455,0.2888559286542146,0.2964442282886201,-0.9447489893710406,-0.13989341155594856
0.027837403123452335,-0.17217274741546115,0.2885143190592371,0.28048718772420644,-0.9465055811296166,-0.15954348126154363
0.04570539879702388,-0.16579401958004342,0.28817422101114026,0.3079207764338637,-0.93447790592866,-0.17870601213040654
0.06357490601747583,-0.15943040721343024,0.28783261141616295,0.3556099086501525,-0.9103230927876843,-0.21178635368525334
0.0814429016910474,-0.1530516793780125,0.28749251336806614,0.356625018361988,-0.9116088914288519,-0.2044207067451127
0.0993139204583798,-0.1466880670113993,0.2871509037730886,0.35143278913098425,-0.9184505019620709,-0.18150391226978338
0.11718040458507091,-0.1403244546447859,0.2868108057249918,0.29977092621423534,-0.9380807268117987,-0.17361434785439542
0.13505142335240333,-0.13394572680936828,0.2864691961300145,0.28717938995121,-0.9507616556170481,-0.1165344249377859
0.15423748790571043,-0.14312081637358282,0.2886548929191172,0.2998878317593336,-0.9518424643468588,-0.06374332458214407
0.172038975516543,-0.13677231947577373,0.28831479487102035,0.3448336908833005,-0.9338934074258445,-0.09451364556690246
0.18865692191999836,-0.11483977424072397,0.28544739043884326,0.4379582811534157,-0.8896192315786263,-0.12949967866601148
0.20652794068733077,-0.10847616187411056,0.28510729239074645,0.4406305459778391,-0.8862471491090272,-0.14286606541580502
0.22439593636090235,-0.10209743403869294,0.2847656827957689,0.40303863739767226,-0.9043307963264412,-0.1405192783222729
0.2422654435813543,-0.09573382167207965,0.2844255847476721,0.40455482332453585,-0.9002901261167879,-0.1606645067881261
0.2601334392549259,-0.08937020930546635,0.2840839751526948,0.4238413048356115,-0.8891623068415069,-0.1724788114741524
0.2771519455816953,-0.06728650938237346,0.28120901298611556,0.5029545884429646,-0.8375652953322907,-0.21335664512524738
0.29508796086488626,-0.060892666078151525,0.28086740339113825,0.5344954995855941,-0.8148194456562963,-0.2244634311042942
0.31230447983299214,-0.03874850427984146,0.277989418130798,0.5160617646813127,-0.8336191894622282,-0.19687382252180463
0.330307003178922,-0.03233954550681519,0.2776447854420598,0.4310044565886256,-0.8757722799418126,-0.217389217962306
0.3483110380717323,-0.02591547126498471,0.2773016643002022,0.32750299951135375,-0.9148632513953795,-0.23615041087692537
0.36631356141766214,-0.019506512491958443,0.27695854315834445,0.2867354640726847,-0.9285173041219518,-0.23587791246559114
0.38431457321671164,-0.013082438250127856,0.27661542201648665,0.28262197936018657,-0.9326760656169221,-0.22414319844213274
0.4023170965626416,-0.006658364008297269,0.2762723008746289,0.3377122333292057,-0.9157516753684242,-0.2175989809712451
0.4203196199085714,-0.0002494052352710036,0.2759291797327711,0.4759552629043162,-0.8629551630957673,-0.16963187848998493
0.43832214325450125,0.006174669006559479,0.2755860585909133,0.5882854087661606,-0.7920477587367165,-0.1630356577960035
0.4561417694278991,0.028530447368129846,0.2726959809555297,0.6404145587226489,-0.7579476632607617,-0.12403440141197165
0.4740913886330139,0.050931572136113185,0.2698028802263852,0.6883334093342939,-0.7184125330708908,-0.10040194181834068
0.4922269281044216,0.05740099278435663,0.2694567359907667,0.7197764497464361,-0.6916465621788522,-0.05955581765529982
0.5103790945915142,0.07987769489636147,0.2665606121678614,0.7245468891903631,-0.687872465046963,0.04316569465191579
0.5286627656572042,0.10239974341477918,0.2636614652511952,0.709292950456058,-0.6978194734527243,0.09975716968470213
0.546928298160329,0.1089145104694356,0.26331229792181576,0.7547219052262111,-0.6406716962915275,0.14119002564860808
-0.33936721518022384,-0.15932459893179998,0.2529551786971045,-0.39178125513638645,-0.9197628493955187,0.02331842609598568
-0.31791156298594997,-0.16768345318058184,0.25516808333005514,-0.3914793529571739,-0.9198229344693435,0.025878281095123797
-0.2965896826905942,-0.17608765383577665,0.25738249950988606,-0.37071044193579356,-0.9284418809638892,0.023862982043407484
-0.27540233006759685,-0.18453720089738443,0.25959842723659743,-0.3330544471983213,-0.9426435817789054,0.02231172186221095
-0.2543464820231969,-0.1930472098342095,0.2618188896039503,-0.2550193750163738,-0.9662806485912864,0.035592506574572434
-0.23342516165115532,-0.201587449708643,0.26404086351818334,-0.13910251146383318,-0.9902733922583726,-0.003016602318733691
-0.2152896221797475,-0.19511802906039957,0.2636947192825648,-0.03572284074971967,-0.9990312379190865,-0.025699500201906283
-0.1945693375428032,-0.203748961747659,0.2659212278374393,-0.0017795883165241605,-0.9994148243466066,-0.03415906822009594
-0.17650030613413437,-0.197309772037024,0.2655765951487011,0.029809035885666947,-0.9973616775053398,-0.06618992085885624
-0.15597803413852646,-0.20600116659950074,0.2678061267973363,0.037691071286786705,-0.9975381765140057,-0.059135180242955415
-0.1379755107925966,-0.19957709235767004,0.2674630056554785,0.028990951963610612,-0.9980655497971674,-0.05499711821833298
-0.11997298744666673,-0.19316813358464388,0.26711988451362073,0.019219015253839542,-0.9983762092659996,-0.05362438087591974
-0.09971825924889507,-0.20195022095994633,0.26935395080289737,0.05150708050086283,-0.9986724112726718,0.0006600159883135387
-0.08178375551258459,-0.1955563776557245,0.26901234120792006,0.04102244810753058,-0.9991542580971697,0.002815542143055064
-0.061728551503029784,-0.20441404237504834,0.27125094213783796,0.11779091825169992,-0.9917365553812689,-0.0508321187628112
-0.043859044282577815,-0.19805043000843517,0.27090933254286065,0.16532576687228887,-0.9845162184786815,-0.05826839933039653
-0.02599029283556606,-0.19167170217301743,0.2705692344947636,0.2140592373769069,-0.9762871262310403,-0.03228141956534415
-0.008122297161994512,-0.18530808980640404,0.2702276248997863,0.2900968734370551,-0.9563573337957094,-0.03499220080542773
0.009747210058457457,-0.17892936197098652,0.26988752685168943,0.3167735419444053,-0.9450725988461393,-0.08057484740414005
0.027618228825789872,-0.17256574960437313,0.2695459172567122,0.33192648799263674,-0.9368692803916596,-0.11000344552461894
0.04548471295248099,-0.16620213723775992,0.2692058192086151,0.3383757016147852,-0.925722520588482,-0.16893696881384263
0.06335422017293293,-0.1598234094023422,0.26886572116051827,0.36724123008895104,-0.9058893474239091,-0.21094636556868746
